ply
format ascii 1.0
element vertex 830
property float x
property float y
property float z
property float nx
property float ny
property float nz
end_header
0.155571 -0.0262658 -0.650051 -0.250498 0.944948 -0.21053
0.114799 0.0794364 -0.755275 0.384829 -0.0443996 0.921919
0.158831 -0.0248799 -0.649611 -0.175709 0.711908 -0.679936
0.0807719 0.0591049 -0.613532 0.121037 -0.889199 0.441221
0.0805275 0.0600168 -0.615585 0.437138 -0.871116 -0.223758
0.0818155 0.0604018 -0.613399 0.830217 -0.0588551 0.554324
0.0788148 0.0604734 -0.613848 0.644411 -0.362119 0.673502
0.0802718 0.0618839 -0.613675 0.0232166 0.592024 0.805586
0.141971 0.0519825 -0.775271 -0.193063 0.672868 -0.714126
0.198218 0.122002 -0.664938 -0.0483818 -0.419996 0.906235
0.107724 0.077393 -0.752774 0.27223 -0.0613325 0.960276
0.127606 0.0273884 -0.770286 -0.0318348 0.822388 0.568036
0.130985 0.0250339 -0.764906 -0.0226388 0.930335 0.366012
0.134441 0.0270719 -0.770422 -0.109778 0.760615 0.639854
0.160028 -0.0223301 -0.645011 0.587944 -0.461789 0.664133
0.193415 0.0623876 -0.609458 -0.355624 0.398462 -0.845435
0.191949 0.0571165 -0.611541 -0.0975221 0.449081 -0.888153
0.19169 0.0700882 -0.605549 -0.0938307 0.736883 -0.669477
0.117587 0.0765328 -0.761644 -0.0620289 0.474297 -0.878177
0.123109 0.023234 -0.773756 0.156122 -0.590947 -0.791459
0.106567 -0.0291294 -0.661099 -0.0590646 0.97321 0.222204
0.196547 0.1231 -0.665488 -0.757301 -0.295176 0.582552
0.149631 -0.0274618 -0.649825 -0.145753 0.942281 0.301434
0.197406 0.0708039 -0.603305 0.290133 0.387089 0.875206
0.116442 0.0808603 -0.760836 0.016118 -0.238703 -0.970959
0.116698 -0.0378836 -0.649943 0.0975051 -0.959076 -0.265832
0.111672 -0.0389017 -0.646555 -0.0190011 -0.98483 0.17248
0.109305 -0.0385565 -0.647759 -0.376915 -0.923612 -0.0698326
0.161556 -0.0205127 -0.646216 0.811881 -0.462343 -0.356496
0.0792715 0.0625111 -0.605594 0.322562 0.945673 0.0407099
0.113314 0.0809079 -0.761301 -0.057845 -0.213664 -0.975193
0.137368 0.0422172 -0.773474 0.15053 0.0180475 0.988441
0.155575 -0.0230737 -0.643345 0.325931 -0.463642 0.823896
0.078396 0.0622507 -0.609546 0.571789 0.806014 -0.15297
0.107885 -0.0324426 -0.653991 0.210121 0.913625 0.348049
0.135792 0.0429144 -0.77855 -0.307296 0.0251246 -0.951282
0.132553 0.0475468 -0.775725 -0.370191 0.449394 -0.813021
0.191878 0.0682669 -0.596956 0.660947 -0.000844822 0.750432
0.192831 0.0695118 -0.598797 0.885102 0.325596 0.332538
0.126568 0.0247501 -0.773217 0.0232964 -0.353596 -0.935108
0.137686 0.0492318 -0.777047 -0.29548 0.527899 -0.796251
0.151394 -0.023149 -0.644782 -0.310649 0.463548 -0.829831
0.158954 -0.0211479 -0.646746 -0.155081 0.417638 -0.895281
0.19815 0.126411 -0.668605 0.887621 0.20926 -0.410291
0.199736 0.127327 -0.665342 0.966268 0.114179 -0.230844
0.0762961 0.0624146 -0.60399 -0.230059 0.915003 0.331426
0.0801878 0.0606938 -0.617895 0.985209 -0.161849 -0.0562788
0.0783731 0.0592253 -0.615595 0.879033 -0.451733 0.152439
0.192764 0.0706158 -0.601914 0.581778 0.702876 0.409268
0.079697 0.0560145 -0.622604 0.997702 -0.0469548 -0.04884
0.0796507 0.0634189 -0.620179 0.9594 0.18197 -0.215496
0.0795468 0.0647036 -0.619001 0.910022 0.413569 -0.0286391
0.115095 0.0843033 -0.755861 0.472684 -0.0774001 0.877826
0.118876 0.0856872 -0.758819 0.424408 -0.134018 0.895498
0.0796019 0.0637498 -0.616017 0.873655 0.432644 0.222588
0.119699 0.0252036 -0.766583 -0.0913885 0.923321 0.372996
0.190713 0.0705417 -0.596846 0.396771 0.599072 0.695475
0.119541 0.0265614 -0.770437 -0.0307821 0.771124 0.63594
0.190048 0.0724386 -0.600394 0.197762 0.97637 0.0871314
0.199499 0.123508 -0.6648 0.734432 -0.238046 0.635566
0.132565 0.0854932 -0.766572 -0.339072 0.410185 -0.846628
0.208308 0.0641176 -0.616437 0.841945 -0.152024 0.517704
0.207416 0.0737757 -0.611501 0.832348 0.0389443 0.552883
0.205337 0.0719873 -0.608867 0.740746 -0.106278 0.663325
0.143203 -0.0301588 -0.644804 0.141098 -0.752538 0.643256
0.136001 0.05109 -0.774273 -0.319326 0.464704 -0.825882
0.209863 0.0719557 -0.61817 0.65721 -0.301899 0.690602
0.209086 0.0768855 -0.614068 0.401881 -0.397462 0.824934
0.205387 0.0742742 -0.60908 0.579507 0.396045 0.712264
0.108468 0.0162013 -0.764204 -0.0561287 -0.914495 -0.400684
0.206817 0.0767976 -0.612482 0.384413 0.676998 0.627615
0.120528 0.0815725 -0.76188 -0.177863 -0.176976 -0.96801
0.123832 0.0847736 -0.762724 -0.167472 0.243568 -0.955316
0.0790482 0.0516869 -0.61609 0.927462 0.2361 -0.28995
0.199764 0.129205 -0.663018 0.935461 -0.0997406 0.339065
0.213518 0.0778307 -0.614501 0.70597 -0.214299 0.675042
0.211802 0.0780513 -0.61341 0.296394 -0.260388 0.918885
0.214185 0.0724115 -0.618072 0.59223 -0.429336 0.681861
0.134938 0.0855223 -0.759647 0.0805503 -0.416155 0.905719
0.213812 0.0793964 -0.61471 0.842054 0.260927 0.472083
0.214748 0.0722282 -0.619872 0.989108 -0.0758438 0.126146
0.075851 0.0513494 -0.614507 -0.98696 -0.153214 0.0493591
0.0756452 0.0488924 -0.613579 -0.605045 -0.0879871 -0.791315
0.0755872 0.0516151 -0.612849 -0.676589 0.229556 -0.699665
0.211114 0.0727209 -0.618171 0.117094 -0.54756 0.828533
0.0743644 0.0509219 -0.613146 0.0890798 0.28829 -0.953391
0.073269 0.0486332 -0.613719 -0.579922 -0.515998 -0.630426
0.13111 0.0502905 -0.772244 -0.273549 0.419761 -0.865432
0.189492 0.0999842 -0.671706 -0.788117 -0.0713724 0.611373
0.188574 0.0970267 -0.674199 -0.879646 -0.18784 0.436966
0.18983 0.0927754 -0.674734 -0.587448 -0.385776 0.711395
0.192135 0.0979902 -0.670848 -0.618481 -0.388988 0.682766
0.0729146 0.0574732 -0.60996 -0.473434 0.270207 -0.83836
0.144842 -0.0280431 -0.646371 -0.322355 0.781832 -0.533691
0.0723917 0.0541016 -0.612637 -0.345829 0.480633 -0.80585
0.0716876 0.0513697 -0.612109 -0.967613 -0.250232 -0.0332891
0.0750833 0.050344 -0.618362 -0.849864 -0.303185 0.431056
0.0736527 0.0584777 -0.61469 -0.481398 -0.555434 0.678048
0.186165 0.101687 -0.680621 -0.981349 0.00395968 0.192195
0.0740148 0.0531548 -0.617779 -0.411569 -0.45233 0.791207
0.104954 0.0171619 -0.763982 -0.0556119 -0.905469 -0.420753
0.10291 0.0194689 -0.768204 -0.187951 -0.682352 -0.706449
0.0750889 0.0574285 -0.610541 -0.858434 0.0221228 -0.512447
0.142703 -0.0291476 -0.647679 -0.202578 0.97777 0.05412
0.114989 0.0211004 -0.771385 0.0382499 -0.785665 -0.617468
0.206071 0.0775143 -0.613357 -0.38292 0.666189 0.639972
0.121548 -0.0258735 -0.635948 -0.255035 0.755449 -0.603535
0.111521 -0.0278264 -0.63425 0.117676 0.780333 -0.614192
0.209262 0.0807004 -0.612725 -0.0443067 0.300137 0.952867
0.0745606 0.0489833 -0.610861 -0.82632 -0.456614 0.329694
0.0728363 0.0575161 -0.607382 -0.86125 -0.256178 0.438886
0.128306 0.0875277 -0.762271 -0.371808 0.391312 -0.841804
0.212973 0.0819819 -0.620136 0.922603 0.376479 0.0840698
0.195118 0.125091 -0.677774 0.940099 0.15613 -0.303047
0.072229 0.0561139 -0.609572 -0.996351 0.0805315 -0.0282709
0.127567 0.0907791 -0.760914 -0.346199 0.101583 -0.932645
0.0782184 0.0537 -0.618948 0.99858 0.00423139 0.0531001
0.19463 0.118247 -0.682697 0.941874 0.150619 -0.300311
0.21175 0.0815797 -0.614206 0.521334 0.604784 0.602036
0.113538 0.0222589 -0.77234 -0.0988122 -0.432634 -0.896138
0.131719 0.0878179 -0.764486 -0.394065 0.391148 -0.831695
0.121808 0.0919651 -0.760118 -0.130952 0.43684 -0.889957
0.141003 -0.024236 -0.641599 -0.85597 -0.0328669 -0.51598
0.107347 -0.0285973 -0.636551 -0.132123 -0.835351 -0.533603
0.209495 0.0824517 -0.614336 0.049636 0.816196 0.57564
0.108629 -0.029848 -0.633202 -0.534546 -0.779561 0.326413
0.107293 -0.0276098 -0.637631 0.950702 0.0487783 -0.306245
0.196027 0.104088 -0.685623 0.936107 0.303284 -0.178107
0.106371 -0.0281603 -0.636803 -0.477757 -0.724231 0.49723
0.116884 0.0859588 -0.762377 -0.0116669 0.255644 -0.966701
0.107028 -0.0351862 -0.653747 -0.534189 -0.809289 -0.244324
0.109551 -0.0358025 -0.653855 -0.108691 -0.899751 -0.422651
0.207695 0.0820532 -0.614459 -0.443495 0.650677 0.616385
0.20555 0.080844 -0.615652 -0.714747 0.501129 0.487859
0.0730618 0.0556543 -0.616564 0.024478 -0.50615 0.862098
0.107137 -0.0364365 -0.647203 -0.51219 -0.838802 -0.184587
0.0703547 0.0575247 -0.614642 -0.245826 -0.541341 0.804065
0.116829 0.0832415 -0.762807 -0.011031 -0.241656 -0.970299
0.135707 -0.0313516 -0.644517 0.037985 -0.915309 0.400956
0.139003 -0.0299272 -0.644741 0.264986 0.386391 0.88345
0.105217 -0.0335746 -0.651099 -0.544415 -0.790622 -0.280229
0.106275 -0.0334191 -0.6582 -0.436488 -0.834096 -0.337285
0.106492 0.0196857 -0.770437 -0.173529 -0.627186 -0.759292
0.143048 -0.025285 -0.640643 0.0565199 -0.547111 0.83515
0.109014 0.0828213 -0.762135 -0.147155 -0.355334 -0.923083
0.0735843 0.0622473 -0.610923 -0.480628 -0.00176612 0.876923
0.111254 0.0846108 -0.762547 -0.103254 0.112579 -0.988263
0.135925 0.0573232 -0.773062 -0.2359 -0.0991329 -0.966708
0.193683 0.112036 -0.688914 0.896747 0.18501 -0.402016
0.193082 0.125401 -0.684098 0.7892 0.250463 -0.560743
0.193097 0.117656 -0.687652 0.757102 0.275167 -0.59252
0.104412 -0.0364029 -0.645074 -0.51053 -0.856258 -0.0786188
0.141591 -0.0273648 -0.643971 -0.750245 0.469055 -0.465962
0.14142 -0.028263 -0.643594 -0.519448 -0.274005 0.80938
0.200604 0.0723076 -0.605116 0.296621 0.506519 0.809601
0.203113 0.0747294 -0.608545 -0.0713161 0.908969 0.410719
0.0686191 0.0559581 -0.61736 -0.808709 -0.367454 0.459311
0.0701175 0.0520174 -0.618595 -0.604718 -0.487396 0.62989
0.102939 -0.0346788 -0.6445 -0.822974 -0.513488 0.242991
0.189689 0.12052 -0.687178 -0.862965 0.173554 -0.474521
0.108425 0.024941 -0.771951 -0.141105 -0.406276 -0.90279
0.105225 -0.0307405 -0.638704 -0.335718 -0.436502 0.834721
0.102961 -0.0300857 -0.640564 -0.806911 -0.238283 0.540478
0.10668 0.0257549 -0.768367 0.173573 0.300551 0.937839
0.108455 0.0240335 -0.767184 -0.0174845 0.798301 0.602005
0.114396 0.0265047 -0.770058 0.119838 0.558361 0.820897
0.107318 -0.0302621 -0.638967 0.895757 -0.125973 0.426321
0.189209 0.123054 -0.68477 -0.992416 -0.087394 0.0864483
0.0707778 0.0621444 -0.611396 -0.377695 -0.329835 0.865191
0.0683784 0.0615323 -0.613758 -0.792036 -0.234837 0.563498
0.152237 -0.0254234 -0.653229 -0.084411 0.905815 0.415179
0.138447 -0.0293558 -0.64877 -0.176199 0.956873 0.230972
0.125613 0.0909944 -0.757821 0.166813 -0.234575 0.957678
0.2032 0.0745126 -0.611998 -0.808419 0.515652 -0.283833
0.138594 -0.0274087 -0.653417 -0.169507 0.895941 0.410557
0.102108 0.0236256 -0.770265 -0.323792 -0.376909 -0.867813
0.201366 0.0670259 -0.612759 -0.679761 0.283411 -0.676464
0.1977 0.0713979 -0.607991 -0.54529 0.548968 -0.633477
0.142575 0.0190163 -0.760444 0.108728 -0.979789 -0.167903
0.13857 0.0183928 -0.755424 0.148566 -0.986606 -0.0673594
0.130724 0.0176846 -0.757345 0.246792 -0.919219 -0.306808
0.193205 0.133108 -0.680216 0.867213 0.226314 -0.443536
0.13244 0.017382 -0.75271 0.330835 -0.891158 -0.310462
0.0711658 0.0605473 -0.607869 -0.968059 0.217567 0.124603
0.12435 0.0940001 -0.760156 -0.397029 0.141303 -0.906863
0.101354 -0.0324288 -0.650501 -0.732819 -0.656926 -0.177269
0.201101 0.0739062 -0.609209 -0.509225 0.840732 -0.184011
0.122509 0.0900708 -0.757202 0.39944 -0.509531 0.76212
0.0728841 0.0614856 -0.60623 -0.70203 0.615506 0.358198
0.105934 -0.0298459 -0.642647 0.906473 0.353973 -0.230241
0.13025 0.0140879 -0.74914 0.229062 -0.829198 -0.509864
0.198376 0.0728995 -0.606154 -0.304722 0.942934 0.134239
0.196016 0.130168 -0.672379 0.930439 0.177495 -0.320592
0.0769477 0.0637753 -0.611497 0.55595 0.623352 0.549865
0.0764033 0.062738 -0.608466 -0.110725 0.988329 0.104622
0.140208 0.0189533 -0.75404 -0.0315059 -0.963586 0.265536
0.138584 0.0178273 -0.752405 0.276343 -0.862374 -0.424199
0.0738788 0.0616093 -0.60917 -0.626688 0.74977 -0.212386
0.128534 0.0973449 -0.758259 0.130961 -0.229021 0.964572
0.124856 0.0935521 -0.756917 0.475705 -0.215334 0.85284
0.0721294 0.0612648 -0.60898 -0.522859 0.634885 -0.568806
0.197941 0.0609288 -0.612957 -0.521417 0.341746 -0.781878
0.138515 0.0194481 -0.751806 -0.0447258 0.994026 0.0995625
0.139225 0.0194997 -0.75326 0.360274 0.84567 0.393758
0.132196 0.0186128 -0.751505 -0.148862 0.832222 0.534085
0.159258 -0.0180562 -0.642908 0.441049 -0.469988 0.764583
0.152183 -0.019211 -0.640914 0.301809 -0.508687 0.806318
0.191622 0.130845 -0.675219 -0.925823 -0.189939 0.326763
0.134851 0.0609829 -0.768663 0.214443 -0.386585 0.896976
0.133364 0.0216924 -0.755456 0.00505333 0.875325 0.483508
0.140484 0.0191455 -0.753451 -0.938875 0.100675 0.329209
0.139114 0.0223648 -0.757214 -0.118566 0.864187 0.489001
0.11591 0.0905211 -0.751917 0.491188 -0.42998 0.75753
0.10462 -0.0289996 -0.659044 0.637482 0.767109 0.0718366
0.103887 -0.0279247 -0.652649 0.883216 0.463951 -0.0684056
0.140371 -0.022164 -0.640965 -0.661527 0.0887715 -0.744649
0.160123 -0.0177654 -0.646034 -0.175794 0.39302 -0.90257
0.128042 0.0206814 -0.753931 -0.0527787 0.813172 0.579626
0.117983 0.0875122 -0.757185 0.484352 -0.523501 0.700964
0.139818 0.0611699 -0.77526 -0.102868 -0.278653 -0.954867
0.101371 -0.0295309 -0.657417 -0.655143 -0.688808 -0.310372
0.143673 0.0633264 -0.776046 -0.149627 0.236487 -0.960045
0.159438 -0.0153514 -0.640567 0.385533 -0.747185 0.541368
0.143436 -0.0209767 -0.638584 0.234792 -0.600558 0.764332
0.113254 0.087207 -0.753714 0.434819 -0.551248 0.712079
0.103266 -0.0256177 -0.650023 0.932429 0.319102 -0.169556
0.135584 0.0608527 -0.774311 -0.318213 0.00585863 -0.948001
0.151186 -0.0169514 -0.637708 0.318598 -0.838892 0.44131
0.143159 -0.0188206 -0.636228 0.241558 -0.793293 0.55887
0.0994404 -0.0268375 -0.648997 -0.972132 -0.155087 0.175807
0.100756 -0.0284284 -0.644674 -0.939624 -0.0895708 0.330278
0.110727 0.0890739 -0.74952 0.381581 -0.504307 0.774642
0.141323 -0.024711 -0.640554 -0.542122 -0.585692 0.602552
0.192561 0.0711027 -0.603429 0.00260097 0.997798 -0.0662732
0.0770359 0.0670256 -0.614342 0.637348 0.660439 0.396999
0.0738332 0.0720594 -0.62656 0.73128 0.682055 -0.00546002
0.187654 0.0706502 -0.606248 -0.0565334 0.781363 -0.621511
0.13023 0.0564289 -0.768194 0.138245 -0.105007 0.984816
0.191284 0.123861 -0.68609 0.0744209 0.435241 -0.897233
0.106672 0.0706283 -0.754675 0.273526 -0.494255 0.825164
0.104131 -0.0266129 -0.638207 -0.776389 -0.364269 0.514322
0.18933 0.125526 -0.684083 -0.960987 0.110709 -0.253473
0.102059 -0.0255088 -0.64278 -0.919455 -0.0438316 0.390744
0.139659 -0.0220249 -0.638579 -0.0492919 -0.905957 0.420491
0.137456 -0.0215554 -0.638828 -0.285964 -0.0758088 -0.955237
0.120926 0.0221024 -0.75916 -0.0977891 0.915387 0.390517
0.122429 0.0193583 -0.752365 -0.0160392 0.757339 0.652825
0.137748 -0.0222268 -0.63785 0.441298 -0.881294 0.169045
0.105985 0.0804951 -0.759478 -0.204339 -0.325953 -0.923039
0.104667 -0.0240392 -0.642537 0.921595 0.326154 -0.210442
0.129842 0.0595405 -0.771813 -0.383081 0.077171 -0.920485
0.133757 0.0666078 -0.771225 -0.382875 0.41366 -0.82601
0.141939 -0.0165127 -0.638301 -0.4017 0.657817 -0.637114
0.0652297 0.0626865 -0.622575 -0.938285 -0.189674 0.289213
0.0660608 0.0681366 -0.618784 -0.853307 0.230659 0.467615
0.0680414 0.0652343 -0.613804 -0.810984 0.16286 0.561944
0.153259 -0.0156442 -0.635713 0.406721 -0.831618 0.378139
0.156238 -0.0140195 -0.635691 0.386951 -0.62863 0.674606
0.147951 -0.0164125 -0.633542 0.267127 -0.695054 0.667491
0.105819 -0.0234904 -0.635537 0.92496 0.32089 0.203663
0.0987687 0.0784714 -0.757185 -0.284318 -0.176318 -0.942377
0.189779 0.129231 -0.683056 -0.716439 0.295311 -0.632066
0.191901 0.13531 -0.680719 0.449193 0.378776 -0.809169
0.190627 0.133734 -0.681641 -0.376325 0.374272 -0.847526
0.0733301 0.0678142 -0.612457 0.155666 0.726169 0.669662
0.128389 0.0164132 -0.75078 -0.181508 0.786856 0.589841
0.101082 -0.0229545 -0.644032 -0.901021 -0.390344 0.189192
0.189797 0.0275733 -0.623419 0.50445 -0.399849 0.765278
0.175454 0.0238386 -0.619516 0.17699 -0.386873 0.904988
0.187592 0.0230248 -0.623615 0.389722 -0.306441 0.868453
0.102084 -0.0226188 -0.63588 -0.581352 -0.797479 0.161422
0.0709876 0.0658499 -0.610994 -0.317437 0.330188 0.888937
0.0961444 0.0725577 -0.757483 -0.514215 0.411214 -0.752653
0.140223 0.0685368 -0.772589 -0.203649 0.577573 -0.790529
0.175476 0.0256499 -0.618425 0.208628 -0.676755 0.706029
0.122211 0.0151741 -0.749717 -0.0242621 0.792783 0.60902
0.189832 0.0304808 -0.620823 0.478767 -0.772538 0.417093
0.175833 0.0269996 -0.616643 0.227906 -0.844564 0.48453
0.116363 0.0165165 -0.750042 0.0479014 0.599924 0.798622
0.126177 -0.0226799 -0.631053 0.336602 -0.391419 0.856441
0.194212 0.13701 -0.674141 0.944313 0.17593 -0.278068
0.189405 0.0309636 -0.617614 0.453602 -0.810196 0.371252
0.182009 0.0292768 -0.614982 0.299622 -0.769753 0.563655
0.140385 -0.0176434 -0.632994 0.19328 -0.720605 0.665861
0.188039 0.0312792 -0.615948 0.424528 -0.591999 0.685064
0.135983 -0.0238845 -0.637802 0.85059 -0.217408 0.47878
0.13484 -0.0225362 -0.636317 0.309039 -0.418307 0.854116
0.135044 -0.0254553 -0.637165 0.464217 -0.27047 0.843415
0.131616 -0.0262858 -0.636536 0.309606 -0.673052 0.671673
0.129768 -0.0218347 -0.632414 0.470283 -0.420977 0.775637
0.132432 -0.0216474 -0.635074 0.684755 -0.393761 -0.61324
0.071513 0.0716983 -0.619749 0.193794 0.899323 0.391997
0.13375 -0.0204664 -0.634021 0.283587 -0.598031 0.749625
0.131486 -0.0231875 -0.636714 -0.203857 0.786159 -0.583434
0.134016 -0.0220473 -0.636971 -0.749763 0.481675 -0.453702
0.132755 -0.0211954 -0.634482 0.317258 -0.828196 0.461995
0.179312 0.0293345 -0.614011 0.206714 -0.644093 0.736487
0.134052 -0.0185751 -0.634963 -0.371615 0.51512 -0.772369
0.13772 -0.0168301 -0.635106 -0.356647 0.745463 -0.563106
0.0690859 0.0700374 -0.61688 -0.376244 0.74101 0.556188
0.18314 0.0369938 -0.611336 0.318177 -0.302581 0.898448
0.138143 -0.0167694 -0.63187 0.0552326 -0.497907 0.86547
0.164382 0.0636728 -0.762841 0.737214 -0.357214 -0.57351
0.166613 0.0623794 -0.758902 0.600874 -0.608642 -0.518175
0.169844 0.0585756 -0.751638 0.897505 -0.282183 -0.338906
0.135691 -0.0234579 -0.63892 0.22813 0.555328 -0.79973
0.0954078 0.0767666 -0.756053 -0.437652 -0.12615 -0.890251
0.193953 0.029958 -0.626146 0.493858 -0.422132 0.760204
0.196052 0.0268358 -0.628343 0.523899 -0.464183 0.714188
0.194122 0.0322034 -0.624018 0.525445 -0.729259 0.43828
0.193943 0.0244238 -0.627127 0.627207 -0.252247 0.736874
0.170307 0.0634157 -0.756336 0.855786 -0.302925 -0.419365
0.168235 0.0643207 -0.76066 0.675446 -0.517806 -0.525023
0.107256 0.0818932 -0.753495 0.271334 -0.0589407 0.960679
0.137154 -0.0134958 -0.630748 -0.255291 -0.471749 0.843967
0.13576 -0.0154506 -0.631403 -0.0263582 -0.491827 0.870294
0.189402 0.132567 -0.680185 -0.997724 0.0118561 -0.0663751
0.166058 0.066783 -0.764614 0.69059 -0.277717 -0.667801
0.127241 -0.0223358 -0.634839 -0.199402 0.496445 -0.844856
0.137349 -0.0104841 -0.628696 0.299372 -0.469563 0.830594
0.100731 0.0805815 -0.751941 0.238571 -0.0779676 0.96799
0.14368 -0.010884 -0.629928 0.19383 -0.380616 0.904191
0.168423 0.0667827 -0.76133 0.875131 0.0248866 -0.483246
0.194559 0.0337217 -0.619683 0.639658 -0.560533 0.525966
0.129473 -0.0173995 -0.633399 -0.143016 0.451905 -0.880527
0.171595 0.0611239 -0.750463 0.943663 -0.236218 -0.231735
0.133322 -0.0163008 -0.632303 -0.0703272 0.806271 0.587351
0.19999 0.0291849 -0.627908 0.421782 -0.475987 0.77171
0.197368 0.0334633 -0.625239 0.516637 -0.526328 0.675326
0.13435 -0.0154281 -0.632427 -0.510601 0.576385 -0.638018
0.181752 -0.0170774 -0.678778 0.0771449 -0.800317 -0.594594
0.189441 -0.0219724 -0.668099 0.411832 -0.782852 -0.466409
0.18575 -0.0239334 -0.666025 0.179117 -0.953907 -0.240787
0.137378 -0.0132423 -0.631055 -0.288931 0.485528 -0.825094
0.196095 0.0308379 -0.62784 -0.266587 0.484338 -0.833275
0.194573 0.0280303 -0.629392 -0.400573 0.503268 -0.765678
0.193865 0.0342806 -0.625632 -0.283887 0.597433 -0.749987
0.184349 0.027552 -0.627362 -0.285552 0.289624 -0.913552
0.187373 -0.0175888 -0.675656 0.570923 -0.608791 -0.550837
0.189009 0.138282 -0.678119 -0.993998 -0.0471856 -0.098702
0.197296 0.0364295 -0.626072 -0.68714 0.319546 -0.652479
0.128372 -0.0173804 -0.630065 0.360341 -0.425293 0.830229
0.120749 0.0133489 -0.750808 0.139089 -0.931895 -0.335002
0.110938 0.0126333 -0.754555 0.0123746 -0.958864 -0.283597
0.16687 0.0636173 -0.753441 -0.857616 0.120564 0.499959
0.163674 0.0671056 -0.759913 -0.854329 0.1259 0.504253
0.162407 0.0635049 -0.759563 -0.829521 0.160225 0.534997
0.131971 -0.0157955 -0.631391 0.560565 -0.522507 0.642459
0.0996828 0.084567 -0.749994 0.160789 -0.59669 0.786198
0.170013 0.013779 -0.735186 0.865458 -0.498257 -0.052178
0.167934 0.0158387 -0.742104 0.744808 -0.525621 -0.411077
0.171665 0.0171484 -0.735475 0.927045 -0.342125 -0.15342
0.0996782 0.0762389 -0.751112 0.14241 -0.110132 0.983662
0.17241 0.0682106 -0.747471 0.988593 0.07091 -0.132878
0.131216 -0.0154604 -0.632473 0.074717 0.487066 -0.870163
0.168709 0.0189737 -0.743584 0.882056 -0.294911 -0.367431
0.169489 0.0615147 -0.748125 -0.955503 0.162725 0.246036
0.167729 0.0671394 -0.751315 -0.890702 -0.341255 0.300325
0.18363 0.0297528 -0.625767 -0.323129 0.527686 -0.78558
0.173437 -0.02166 -0.671122 0.0230965 -0.883738 -0.467412
0.172606 -0.0188486 -0.676574 0.00318921 -0.826944 -0.562276
0.17292 0.0218381 -0.734471 0.880787 -0.359516 -0.30816
0.170487 0.0713419 -0.754038 0.912986 0.308909 -0.266519
0.110777 0.0191097 -0.755795 -0.15635 0.8883 0.431831
0.170501 0.0249034 -0.742171 0.833302 -0.372665 -0.408323
0.198443 0.129988 -0.661493 0.292329 -0.388914 0.873664
0.197103 0.128876 -0.662144 -0.40039 -0.400676 0.824104
0.187265 -0.0122427 -0.679385 0.465299 -0.225428 -0.855967
0.189678 -0.0145392 -0.673557 0.746473 -0.436686 -0.502078
0.189615 -0.010048 -0.678492 0.786353 -0.290746 -0.545084
0.0982246 0.0815016 -0.751282 0.00826538 -0.213222 0.976969
0.19022 0.0367782 -0.621681 -0.200937 0.616752 -0.761079
0.194378 0.0373332 -0.621464 -0.420234 0.547951 -0.723293
0.0946778 0.081455 -0.751698 0.124506 -0.151488 0.980586
0.185031 0.0333323 -0.623671 -0.312934 0.677595 -0.665535
0.100039 0.0811747 -0.759337 -0.219638 -0.437813 -0.871825
0.18802 -0.00943147 -0.680749 0.651861 -0.347128 -0.674226
0.186337 -0.00970539 -0.680811 -0.790297 -0.61262 -0.0113422
0.186694 -0.0113089 -0.678282 -0.88549 0.436204 0.160107
0.0962001 0.0813707 -0.758148 -0.361867 -0.153468 -0.91951
0.186362 -0.00901836 -0.683526 0.73386 -0.649473 -0.199082
0.173767 0.0268266 -0.739397 0.881839 -0.311673 -0.353866
0.171934 0.0296903 -0.745636 0.865762 -0.249069 -0.434074
0.190812 -0.00430832 -0.677332 0.907916 -0.0111527 -0.419004
0.168328 0.0280894 -0.749515 0.826596 -0.277992 -0.489347
0.188136 -0.00627519 -0.678871 -0.935437 0.159265 0.315581
0.187082 -0.00793835 -0.680177 -0.851409 0.360176 0.381282
0.183827 0.0353222 -0.619833 -0.360808 0.62021 -0.696532
0.188196 -0.0054896 -0.680861 0.813285 -0.0950376 -0.574052
0.163976 0.0704498 -0.758493 -0.892385 -0.329257 0.308607
0.187318 -0.00568289 -0.682315 0.916561 -0.345957 0.200572
0.169243 0.0109863 -0.733242 0.627409 -0.61853 -0.473053
0.168728 0.0129323 -0.734268 0.0630085 0.572933 0.817177
0.169304 0.0120693 -0.733054 0.56702 0.819428 -0.0838274
0.168097 0.00950466 -0.730688 0.196402 -0.857657 -0.475238
0.167089 0.0115421 -0.736597 0.350181 -0.842981 -0.408358
0.186657 -0.00522791 -0.681662 -0.776883 -0.33173 0.535171
0.187228 -0.00239054 -0.68077 -0.821563 0.161255 0.546837
0.186467 -0.00597479 -0.681968 -0.543484 0.284415 0.789768
0.106362 0.0225369 -0.764264 -0.130287 0.891488 0.433906
0.186095 -0.00728483 -0.687226 0.833133 -0.413444 -0.36736
0.188893 -0.000729114 -0.68401 0.911112 -0.329616 -0.247442
0.175065 0.0255089 -0.624131 -0.440467 0.338804 -0.831385
0.188338 -0.00305013 -0.681572 0.91306 -0.343887 -0.219233
0.0945429 0.0836202 -0.750713 0.106431 -0.566369 0.817251
0.197821 0.136256 -0.663993 0.888393 0.239607 -0.391594
0.199337 0.134451 -0.662191 0.96511 0.163062 -0.204876
0.119318 -0.0194008 -0.628445 0.220743 -0.378614 0.898846
0.117869 -0.0240771 -0.628844 0.16507 -0.343259 0.924621
0.170512 0.0150793 -0.733528 0.275759 -0.4187 0.865244
0.162324 0.0734101 -0.757046 -0.687366 -0.726308 0.00209847
0.164299 0.0712447 -0.751086 -0.879538 -0.39396 0.266851
0.18494 -0.0152442 -0.680534 0.442027 -0.565076 -0.696636
0.166578 0.0143763 -0.736256 -0.292583 0.734151 0.612712
0.168263 0.0156215 -0.735915 -0.704346 0.317955 0.634667
0.162553 0.0652864 -0.766025 0.606532 -0.281645 -0.743502
0.195635 0.134662 -0.660996 -0.833138 -0.273707 0.480588
0.195544 0.14052 -0.667653 0.928412 0.210223 -0.306362
0.114317 -0.0194509 -0.630458 -0.153329 0.401478 -0.902943
0.108204 0.0130618 -0.754576 0.0211477 -0.952363 -0.304234
0.104201 0.0836465 -0.761324 -0.264492 -0.0382636 -0.963629
0.165143 0.0691504 -0.765565 0.745331 0.201764 -0.635432
0.182564 -0.0137285 -0.682696 0.438522 -0.713758 -0.546121
0.162332 0.0688438 -0.768497 0.517389 -0.0328799 -0.855118
0.174576 -0.0155379 -0.680388 0.0510632 -0.849334 -0.52538
0.11321 -0.023969 -0.631593 -0.0623787 0.419455 -0.90563
0.165606 0.0752509 -0.761601 0.757699 0.437727 -0.484032
0.150274 0.00897218 -0.736192 0.00514652 -0.937587 -0.347712
0.155983 0.00703536 -0.727685 0.0873121 -0.919474 -0.383332
0.185328 -0.0148582 -0.674501 -0.224967 0.867183 0.444279
0.187091 -0.0141708 -0.674253 -0.513723 0.687669 0.51303
0.196903 0.136813 -0.65847 -0.281738 -0.439147 0.853097
0.199167 0.134267 -0.660301 0.798207 -0.188405 0.572162
0.134535 -0.0137691 -0.630337 -0.0554704 0.362987 0.930142
0.183814 -0.0127562 -0.680738 -0.00549622 0.996711 -0.0808455
0.183 -0.0136118 -0.678085 -0.0133979 0.947877 0.318356
0.132568 -0.0138407 -0.63094 0.484411 0.547587 -0.682271
0.175887 0.0308799 -0.620745 -0.440492 0.648982 -0.620314
0.162699 0.012332 -0.74054 0.137189 -0.913444 -0.383144
0.132514 -0.0134126 -0.629229 0.370068 -0.833808 0.409652
0.164227 0.0160722 -0.740633 -0.299758 0.827318 0.475069
0.156628 0.0124544 -0.73407 -0.0897844 0.860047 0.502253
0.167728 0.0753999 -0.75455 0.889669 0.276514 -0.363359
0.147718 0.0121592 -0.74387 -0.0748101 -0.920421 -0.383704
0.130692 -0.0116298 -0.624437 0.43652 -0.608106 0.663066
0.126329 -0.0130736 -0.624236 0.242577 -0.913935 0.325389
0.11092 0.0160927 -0.749591 -0.0946542 0.780845 0.617513
0.150167 0.0119116 -0.735157 0.0273522 0.895914 0.443385
0.191405 0.0389688 -0.614818 0.565612 -0.270048 0.779203
0.152561 0.00737734 -0.730192 0.0650177 -0.948027 -0.311478
0.198394 0.137917 -0.658137 0.514054 -0.327543 0.792757
0.146964 0.00828896 -0.733476 0.0463636 -0.946759 -0.318589
0.144676 0.0125529 -0.742538 -0.0516834 -0.920886 -0.386391
0.199067 0.141435 -0.658169 0.991949 0.0705623 0.105153
0.103252 0.0915061 -0.758938 -0.258516 0.691131 -0.674913
0.0989763 0.0159014 -0.754375 -0.031926 0.905019 0.42417
0.19709 0.0357213 -0.621651 0.764829 -0.332883 0.551567
0.121088 -0.0143772 -0.625309 0.273813 -0.825867 0.49292
0.169792 -0.0156649 -0.673409 -0.215784 0.937593 0.272682
0.164506 0.0777091 -0.760351 0.770035 0.326004 -0.548423
0.0970656 0.089504 -0.757192 -0.445935 0.430383 -0.784801
0.168062 -0.0169711 -0.678478 -0.0418768 -0.852636 -0.520824
0.19817 0.039265 -0.622249 0.813993 -0.117223 0.568924
0.194001 0.0414061 -0.616424 0.721573 -0.108412 0.683798
0.115907 -0.0138158 -0.627714 -0.194537 0.667256 -0.718975
0.128004 -0.0119818 -0.629396 -0.176904 0.623022 -0.761937
0.191374 0.0433634 -0.613683 0.698557 -0.289832 0.654229
0.171802 0.0716939 -0.74659 0.972444 0.120195 -0.199765
0.180428 -0.0125605 -0.682334 -0.0459939 0.764151 0.643396
0.167224 -0.0147776 -0.680135 0.162878 0.872132 0.461364
0.172671 0.0671934 -0.742924 0.957671 -0.07129 -0.2789
0.172109 0.0709249 -0.743469 0.955449 0.068968 -0.286986
0.194914 0.143162 -0.656927 -0.768641 -0.330802 0.547504
0.190289 0.14418 -0.670948 -0.922524 -0.223885 0.314364
0.182693 -0.012174 -0.686297 0.476326 -0.792151 -0.381589
0.180716 -0.00985066 -0.691802 0.407194 -0.769321 -0.492279
0.174702 -0.0136213 -0.684857 0.113975 -0.910984 -0.396382
0.165756 -0.0124268 -0.690268 -0.0190162 -0.907282 -0.420093
0.0995076 0.0912587 -0.757143 -0.331633 0.853238 -0.402498
0.133692 0.00785549 -0.736355 0.113919 -0.901662 -0.417167
0.183292 -0.0124161 -0.682523 0.922068 0.157334 0.353605
0.184796 -0.0104662 -0.683557 0.525355 -0.5876 0.615409
0.169938 0.0660673 -0.745432 -0.974108 -0.212767 0.0764511
0.18237 -0.0091964 -0.684162 -0.188287 0.665011 0.722709
0.184514 -0.0091484 -0.682973 -0.560112 -0.141708 0.816207
0.164945 0.0146393 -0.744895 0.401149 -0.80093 -0.444512
0.163796 0.0165925 -0.749343 0.412883 -0.766784 -0.491497
0.10004 0.0497556 -0.766769 -0.43205 0.327928 -0.840117
0.100092 0.0447774 -0.768508 -0.391135 -0.016572 -0.920184
0.0951675 0.0421174 -0.766059 -0.319846 0.203034 -0.92546
0.16966 0.0670496 -0.743783 -0.971575 -0.0893859 0.219206
0.0905958 0.0437763 -0.762937 -0.304877 0.357911 -0.882581
0.0964197 0.0512903 -0.76437 -0.409656 0.374014 -0.832043
0.0920019 0.0508069 -0.762767 -0.230927 0.248585 -0.94068
0.185374 0.0399586 -0.618017 -0.337166 0.233569 -0.912011
0.166895 0.0710817 -0.746068 -0.850007 -0.190494 0.491122
0.099341 0.0514803 -0.758148 0.564541 0.547633 0.617569
0.103407 0.0488201 -0.75775 0.759989 0.158866 0.630221
0.105069 0.0502966 -0.759789 0.457438 -0.0670912 0.886707
0.101652 0.0525209 -0.759081 0.25505 -0.0672772 0.964585
0.171843 0.0678625 -0.739705 -0.875442 0.1448 0.461123
0.0963086 0.0492289 -0.760284 -0.188848 -0.953892 0.233297
0.097214 0.0469303 -0.762796 0.132132 -0.471723 0.87179
0.100498 0.04693 -0.762011 -0.0363032 -0.934667 0.353665
0.09139 0.0494529 -0.759285 0.165513 -0.619545 0.767313
0.100296 0.0224795 -0.76545 0.0272401 0.652689 0.757136
0.0938417 0.0490931 -0.758399 -0.236713 -0.901733 -0.361724
0.096247 0.0564572 -0.760476 -0.43807 0.137004 -0.888439
0.172151 -0.0107719 -0.683488 -0.0586804 0.68448 0.726666
0.102802 0.0251147 -0.767497 0.208112 0.26933 0.940293
0.175186 0.0378158 -0.615021 -0.470084 0.167007 -0.866677
0.107454 0.0530174 -0.768603 -0.295955 0.493191 -0.81803
0.105326 0.0560558 -0.765193 -0.309916 0.384347 -0.869615
0.099165 0.0548545 -0.763649 -0.406565 0.331707 -0.851278
0.13773 0.0261532 -0.776026 -0.250889 -0.0652483 -0.965814
0.145578 0.0268726 -0.778207 -0.170484 -0.182644 -0.968285
0.183469 -0.00621213 -0.687922 -0.782137 0.429379 0.451549
0.18099 -0.00669288 -0.690656 -0.398483 0.794225 0.458713
0.133688 0.0305244 -0.774267 -0.110601 -0.0344857 -0.993266
0.131898 0.027876 -0.774484 0.668892 -0.711925 -0.213885
0.165284 0.01907 -0.743727 -0.78014 0.451861 0.432671
0.146381 0.0310656 -0.777618 -0.220122 -0.0372157 -0.974762
0.110846 -0.0251328 -0.629101 -0.206031 -0.419793 0.883926
0.176377 0.0208539 -0.6206 0.220341 -0.372025 0.901691
0.171576 0.0194174 -0.620523 0.12146 -0.537425 0.834519
0.173071 0.0137722 -0.62413 0.141916 -0.684717 0.714858
0.106581 -0.0233351 -0.631613 -0.648716 -0.72293 0.237781
0.0980066 0.0587711 -0.762502 -0.44236 -0.0455916 -0.895678
0.173877 -0.00895209 -0.685788 -0.132195 0.900751 0.41373
0.166693 0.0786495 -0.74524 -0.805456 0.120125 0.580354
0.107895 -0.0229753 -0.629697 -0.418119 -0.465334 0.780154
0.173848 0.0777213 -0.739384 0.971515 -0.0185282 -0.236251
0.175422 0.0678611 -0.739187 0.800227 -0.127691 -0.585945
0.0892281 0.0578504 -0.759167 -0.144725 0.443231 -0.884647
0.171153 0.0181997 -0.622729 -0.477468 0.362892 -0.800209
0.16963 0.0220965 -0.621866 -0.413432 0.108947 -0.903993
0.175616 0.0214866 -0.624969 -0.449882 0.289697 -0.844797
0.137716 0.0281735 -0.770363 -0.0973953 0.764437 0.637299
0.133057 0.0290602 -0.77174 -0.0482688 0.373099 0.926535
0.137859 0.0306748 -0.771977 0.0967512 0.312296 0.945045
0.171309 0.0247852 -0.618887 0.180845 -0.581935 0.792873
0.0883986 0.0477318 -0.76164 -0.171897 0.0167026 -0.984973
0.196513 0.148585 -0.658677 0.888005 0.293571 -0.353925
0.172676 0.0758236 -0.7419 0.956013 -0.109917 -0.271952
0.133038 0.034117 -0.772201 -0.00137454 0.0566496 0.998393
0.09136 0.0504163 -0.757863 -0.258058 -0.912725 0.316763
0.162671 0.0200646 -0.748579 -0.358834 0.790385 0.496518
0.178863 0.0730692 -0.733058 0.868557 0.335914 -0.364376
0.123883 0.0289771 -0.772185 0.0205421 0.475749 0.879341
0.124869 0.0307267 -0.772809 0.0592575 0.104238 0.992785
0.0831485 0.0514125 -0.762227 -0.117985 0.102829 -0.987677
0.0846182 0.0482934 -0.761171 -0.191471 -0.145969 -0.970583
0.1731 0.0734216 -0.736397 -0.973354 -0.0942805 0.20903
0.171833 0.0760431 -0.738502 -0.919694 -0.00937294 0.392524
0.168537 0.0237379 -0.738021 -0.848723 0.276143 0.451014
0.168975 0.0265171 -0.615265 0.141264 -0.793484 0.591969
0.127458 0.0292236 -0.775383 0.11306 -0.285502 -0.951686
0.165612 -0.0122057 -0.68268 0.00995031 0.854466 0.519412
0.170639 0.0177144 -0.621654 -0.148549 -0.575952 0.803873
0.166226 0.0180244 -0.621307 0.723884 -0.662992 -0.190876
0.166736 0.0197599 -0.619381 0.395105 -0.540342 0.742915
0.194402 0.150237 -0.663649 0.925676 0.258394 -0.276326
0.17272 0.0776661 -0.744415 0.931356 -0.196051 -0.306823
0.167373 0.0819031 -0.755038 0.824323 -0.195522 -0.531285
0.132361 0.0340683 -0.77448 -0.116505 -0.0650093 -0.99106
0.136012 0.0349027 -0.776084 -0.287558 -0.15142 -0.945718
0.0974935 0.0551833 -0.757574 0.320947 -0.0463159 0.945964
0.166422 0.0221107 -0.620302 -0.412632 0.460359 -0.786006
0.136403 0.0376818 -0.772608 0.108362 0.128538 0.985767
0.164799 0.0175482 -0.622654 0.0924331 0.618267 -0.780514
0.163155 0.0199182 -0.620552 -0.226856 0.688902 -0.68844
0.0976058 0.0523672 -0.753678 0.61221 0.594413 0.521414
0.100772 0.0502799 -0.754451 0.639815 0.51333 0.571951
0.174296 0.0801903 -0.74198 0.961259 -0.204173 -0.185189
0.146135 0.0141731 -0.748089 -0.0805398 -0.886804 -0.455074
0.094135 0.0561282 -0.755722 0.604216 0.554753 0.571989
0.094664 0.0574401 -0.756767 0.416889 0.140156 0.898087
0.161896 0.0213115 -0.61509 0.483349 -0.424366 0.765694
0.162613 0.0176077 -0.617297 0.460336 -0.684022 0.565866
0.168156 0.0232802 -0.61864 0.370846 -0.451017 0.811823
0.108685 -0.0247511 -0.632535 0.322542 0.579975 -0.748061
0.125974 0.0269878 -0.773373 0.161576 -0.417141 -0.894364
0.092528 0.0554592 -0.751317 0.398672 0.581343 0.709296
0.165749 -0.0197015 -0.67503 -0.0222809 -0.830218 -0.556993
0.122968 0.0271505 -0.775186 0.122423 -0.387327 -0.913778
0.106886 -0.0255413 -0.635677 0.694282 0.642616 -0.324064
0.106789 -0.0230851 -0.632525 -0.162954 0.426331 -0.889769
0.106119 -0.0255101 -0.635125 -0.779186 -0.0300285 0.626073
0.0899216 0.0594943 -0.754057 0.434954 0.0860563 0.896331
0.0902677 0.0577018 -0.753519 0.350747 0.537074 0.767156
0.189634 0.139535 -0.678969 -0.545769 0.279891 -0.789809
0.190344 0.142923 -0.677737 -0.175528 0.411914 -0.894157
0.116878 0.0266653 -0.774019 -0.0954839 -0.441115 -0.892357
0.0945221 0.0606662 -0.761149 -0.461344 0.000183671 -0.887221
0.0915915 0.0586474 -0.759522 -0.330038 0.0998342 -0.938674
0.165144 0.0258503 -0.614513 0.42254 -0.488596 0.76337
0.192168 0.147575 -0.674409 0.82811 0.29305 -0.477866
0.103809 0.0577993 -0.75767 0.162623 -0.115067 0.979956
0.191841 0.142323 -0.677504 0.565327 0.352914 -0.745558
0.165513 0.0282252 -0.615235 -0.274275 0.564726 -0.778369
0.168875 0.0283242 -0.617241 -0.467182 0.659033 -0.58942
0.10292 0.0617984 -0.757965 0.154101 0.0381538 0.987318
0.107241 -0.0201756 -0.630289 0.354641 0.83004 -0.430422
0.096841 0.0632419 -0.757368 0.245566 -0.228949 0.941955
0.166474 0.0217301 -0.751427 0.807685 -0.34696 -0.476722
0.160498 0.0215835 -0.616247 -0.13378 0.715869 -0.685299
0.166535 -0.0156407 -0.677621 -0.0818558 0.913381 0.398792
0.105277 -0.0216753 -0.63305 0.813148 0.360057 -0.457329
0.16366 -0.0161955 -0.678748 0.00632298 -0.887291 -0.461167
0.120098 0.0296715 -0.776159 -0.0230015 -0.160127 -0.986828
0.190969 0.147389 -0.675583 0.330818 0.423163 -0.8435
0.0900941 0.0509695 -0.755968 -0.473144 -0.817378 -0.328676
0.0869901 0.0498665 -0.757727 0.256846 -0.272256 0.927312
0.159623 0.0759583 -0.762777 -0.796367 -0.343262 0.497967
0.0859685 0.0519957 -0.756566 0.0675854 -0.852183 0.51886
0.112105 -0.02048 -0.627598 -0.0701339 -0.438883 0.895803
0.161761 0.0190595 -0.754386 0.379144 -0.765801 -0.519422
0.163904 0.0238085 -0.756981 0.602428 -0.46311 -0.650084
0.164992 0.0235323 -0.754576 0.838885 -0.309488 -0.447759
0.171934 0.0277504 -0.613604 0.104876 -0.705415 0.700993
0.161907 -0.0169564 -0.674606 -0.0193043 0.935065 0.35395
0.081832 0.0513573 -0.755354 0.348612 -0.759656 0.548992
0.0847819 0.0520578 -0.753943 -0.0758951 -0.951161 -0.299219
0.188503 0.144487 -0.675282 -0.984343 -0.00194933 -0.176255
0.156526 -0.0184279 -0.676339 0.205001 -0.863181 -0.461403
0.163944 0.081101 -0.749999 -0.843349 0.166746 0.510841
0.161431 0.0216399 -0.751552 -0.316437 0.858372 0.403813
0.16332 0.0230994 -0.751848 -0.760011 0.547425 0.350298
0.161138 0.0227252 -0.755634 -0.296076 0.901237 0.316404
0.123406 0.0367043 -0.772159 0.222866 -0.191368 0.955881
0.119618 0.0357096 -0.770852 0.320528 -0.235624 0.917465
0.16302 -0.0147956 -0.683718 0.0421552 -0.917695 -0.395042
0.169574 0.0353524 -0.609453 0.135509 -0.395068 0.908603
0.152861 0.0174722 -0.752666 0.0463845 -0.858749 -0.510293
0.158972 -0.0126468 -0.681951 -0.057442 0.872167 0.485824
0.135345 0.0397665 -0.776266 -0.160076 -0.430557 -0.888254
0.0829439 0.0602947 -0.756969 -0.0950756 0.449565 -0.888173
0.132126 0.0388213 -0.775001 -0.18424 -0.325882 -0.927284
0.151294 -0.0184049 -0.681265 0.153358 -0.888202 -0.433104
0.108863 -0.0150592 -0.627431 -0.030224 0.617133 -0.786278
0.125656 0.0380878 -0.774758 -0.0936203 0.130286 -0.987046
0.172411 0.0823458 -0.748417 0.864278 -0.220852 -0.451939
0.0852568 0.0620666 -0.755665 -0.11065 0.325437 -0.939067
0.16536 0.028097 -0.613479 0.183286 -0.4021 0.897063
0.192844 0.150682 -0.668953 0.938 0.239273 -0.250808
0.159902 0.0831969 -0.758268 -0.870776 -0.252441 0.421928
0.160207 0.0223011 -0.760452 0.426372 -0.835471 -0.346691
0.161331 0.0231644 -0.760096 0.900856 -0.330083 -0.281964
0.13428 0.0411686 -0.777626 -0.20003 -0.492277 -0.847143
0.16276 -0.0134252 -0.686071 -0.0190147 -0.904073 -0.426954
0.160655 -0.0122547 -0.689183 0.0339868 -0.897724 -0.439246
0.114236 -0.0164395 -0.624442 0.16013 -0.838857 0.520266
0.167062 -0.0148849 -0.684597 -0.00294272 -0.928671 -0.370893
0.129103 0.0411951 -0.775769 -0.297784 -0.0593557 -0.952786
0.152317 0.0191744 -0.748563 -0.129615 0.910508 0.392652
0.154894 0.0207588 -0.752799 -0.112455 0.924166 0.365064
0.107129 0.0614557 -0.764675 -0.24308 -0.0519313 -0.968615
0.165572 0.0312892 -0.611871 -0.0760931 -0.669585 0.738827
0.109565 -0.0127403 -0.623829 0.0138189 0.725591 -0.687988
0.108809 -0.0202271 -0.628378 -0.333155 -0.206547 0.919971
0.1722 0.0807997 -0.74056 -0.896129 0.133134 0.423353
0.169091 0.0822095 -0.744417 -0.783919 0.164396 0.598702
0.117488 0.0373439 -0.775001 -0.0821076 0.401619 -0.912119
0.102539 0.0632639 -0.757805 0.183741 -0.19515 0.963408
0.170103 0.0858206 -0.742594 -0.855941 -0.227464 0.464355
0.164174 0.0311067 -0.6127 0.364948 0.922651 -0.124612
0.167643 0.0317958 -0.612948 -0.0927601 0.51414 -0.852676
0.100739 0.0666877 -0.756171 0.224553 -0.538667 0.812043
0.163851 0.0309986 -0.61199 0.486735 -0.642584 0.591756
0.159695 0.0303623 -0.611555 0.504662 -0.490479 0.710456
0.105636 -0.0210884 -0.62929 -0.191534 -0.340441 0.920552
0.108281 -0.0198936 -0.630013 -0.257931 0.605781 -0.752663
0.0918663 0.0683276 -0.757694 -0.40557 0.362245 -0.839221
0.107817 -0.0188685 -0.628441 -0.866231 -0.137112 0.480463
0.107135 -0.0199975 -0.629765 0.933672 0.0163476 0.357756
0.105994 -0.0193429 -0.628843 0.121242 -0.238905 0.963444
0.174294 0.0873949 -0.744194 0.964067 0.109146 -0.242204
0.172393 0.0896209 -0.749001 0.918072 0.1889 -0.348512
0.170574 -0.00816854 -0.690658 -0.147661 0.904615 0.399835
0.166761 0.0256696 -0.742935 -0.869421 0.305431 0.388355
0.112822 0.0286569 -0.770069 0.239235 -0.00103598 0.970961
0.105897 -0.0186694 -0.629398 0.606699 0.632454 -0.481579
0.108011 -0.0180357 -0.628928 -0.472725 0.228526 -0.851062
0.164009 -0.0097072 -0.689473 0.0435552 0.921129 0.386814
0.105096 -0.0177448 -0.628457 0.345922 0.191433 0.918527
0.188245 0.148815 -0.673204 -0.995178 -0.0505215 -0.0840762
0.106776 -0.0172708 -0.627695 -0.512357 -0.489695 0.705472
0.159508 -0.00884923 -0.68876 0.0190164 0.908991 0.416382
0.104859 -0.0173589 -0.629198 0.725416 0.559173 -0.401369
0.110441 -0.0165456 -0.624599 -0.21073 -0.828708 0.518494
0.163924 0.025219 -0.752276 -0.947629 0.227795 0.223849
0.113418 0.0283518 -0.775517 -0.131203 -0.34622 -0.928933
0.0893767 0.0690963 -0.756493 -0.183506 0.285891 -0.940527
0.164357 0.0305995 -0.753795 -0.958872 0.122231 0.25617
0.166156 0.0850071 -0.749732 -0.840384 0.176212 0.512546
0.105726 -0.0153896 -0.626798 -0.555549 -0.706779 0.437982
0.191162 0.15415 -0.671729 0.782027 0.350908 -0.51507
0.105894 -0.0153917 -0.627643 -0.0839529 0.26458 -0.960702
0.104951 -0.0168645 -0.627842 0.131073 -0.728801 0.672064
0.103775 -0.0166034 -0.628359 -0.0152811 0.133545 0.990925
0.0777768 0.047801 -0.759174 -0.179257 -0.458535 -0.870409
0.0768509 0.0493998 -0.760969 -0.177055 -0.364328 -0.914285
0.174345 0.0319732 -0.61784 -0.521017 0.666524 -0.533187
0.171445 0.031823 -0.61323 -0.464088 0.555061 -0.690311
0.189538 0.158832 -0.670352 0.359899 0.457189 -0.813296
0.105297 0.026595 -0.772832 -0.274882 -0.315736 -0.908158
0.104387 -0.012976 -0.626694 -0.0523331 0.474095 -0.878917
0.10458 -0.0150402 -0.627679 -0.520912 -0.449564 -0.725633
0.188954 0.151525 -0.673598 -0.501047 0.312872 -0.806884
0.0775779 0.0514877 -0.761035 -0.26857 0.301707 -0.914791
0.159877 0.0775171 -0.765481 0.638668 0.303011 -0.70731
0.174607 0.0341189 -0.616235 -0.599144 0.42719 -0.677152
0.174566 0.0365329 -0.609367 0.11425 -0.365543 0.923756
0.068936 0.0468337 -0.758004 -0.307702 -0.301274 -0.902526
0.187421 0.15522 -0.670181 -0.986998 -0.104206 -0.122374
0.0714224 0.0492112 -0.759387 -0.408555 0.115217 -0.905432
0.156419 -0.0180704 -0.672951 -0.285185 0.914689 0.286379
0.153659 -0.0140011 -0.680578 -0.246827 0.836214 0.489716
0.171789 0.0344478 -0.612443 -0.5121 0.170566 -0.84182
0.123441 -0.0129322 -0.621457 0.34565 -0.78167 0.519151
0.122385 -0.0120621 -0.620232 0.355795 -0.431467 0.829003
0.159331 0.0834253 -0.763143 0.653088 0.166847 -0.738673
0.164834 0.0837921 -0.759179 0.692221 -0.206545 -0.691498
0.188041 0.158537 -0.670442 -0.37934 0.291775 -0.878048
0.104573 0.0341964 -0.772826 -0.382006 0.186743 -0.905096
0.0759413 0.0498871 -0.7521 0.475936 -0.858046 -0.192981
0.0792693 0.0563291 -0.758604 -0.261609 0.537378 -0.801739
0.127144 -0.00539937 -0.619868 0.420008 -0.191233 0.887143
0.112598 0.0364561 -0.774718 -0.190203 0.297279 -0.935654
0.118079 -0.0145026 -0.619957 0.224324 -0.744913 0.628318
0.167815 0.08621 -0.757605 0.79324 -0.174818 -0.583274
0.197017 0.144407 -0.654856 0.18214 -0.416704 0.890608
0.153719 -0.00980347 -0.688891 -0.162232 0.880387 0.445646
0.0720331 0.0539244 -0.75705 -0.430774 0.505921 -0.747314
0.118385 -0.00727762 -0.617227 0.177688 -0.176291 0.968168
0.198602 0.146087 -0.656146 0.992138 0.0520412 0.113817
0.162252 0.0827939 -0.754012 -0.787323 0.364366 0.497352
0.0760146 0.0587532 -0.755239 -0.340088 0.38173 -0.859431
0.166065 0.0356127 -0.61074 -0.233396 0.367766 -0.900153
0.161901 0.0847002 -0.761593 0.466112 -0.386075 -0.796044
0.160607 0.0288924 -0.614513 -0.0343418 0.365957 -0.929998
0.163279 0.031605 -0.612733 0.122653 0.404907 -0.906094
0.111364 -0.0150319 -0.619977 -0.0881876 -0.73383 0.673584
0.146211 0.0181026 -0.748176 0.0158367 0.91427 0.404796
0.144151 0.014877 -0.739129 -0.00503922 0.901125 0.433531
0.162453 0.087501 -0.763609 0.421397 -0.212383 -0.881657
0.152267 -0.0200174 -0.676859 0.218567 -0.868752 -0.444407
0.188931 0.0426989 -0.612398 0.435732 -0.417606 0.797335
0.150101 -0.0147449 -0.682008 -0.190098 0.832649 0.520152
0.163227 0.0868594 -0.755968 -0.849958 0.237096 0.470486
0.157915 0.0844828 -0.76108 -0.711682 -0.0520048 0.700574
0.161228 0.0879273 -0.760137 -0.660535 0.167782 0.731808
0.0663707 0.0468197 -0.756715 -0.620904 0.0183046 -0.783673
0.142937 0.0150742 -0.74828 -0.0859122 -0.860109 -0.502824
0.117152 -0.0112514 -0.624513 -0.218782 0.659435 -0.719221
0.127442 0.0380464 -0.772144 0.108136 -0.0621096 0.992194
0.0651661 0.0542516 -0.751922 -0.581427 0.240794 -0.777149
0.142859 -0.0198771 -0.679874 0.070542 -0.898634 -0.432991
0.141173 0.0189301 -0.7488 -0.0365649 0.934345 0.35449
0.143777 -0.0216975 -0.674929 0.0777052 -0.898448 -0.432149
0.0678795 0.0556346 -0.753079 -0.468009 0.327889 -0.820644
0.112013 -0.00810726 -0.61698 -0.0456756 -0.296707 0.953876
0.130511 0.043401 -0.772677 0.197573 -0.165973 0.966136
0.17737 0.0400715 -0.608913 0.265711 -0.433675 0.861001
0.131772 0.0104453 -0.742768 0.109963 -0.897337 -0.427427
0.169746 0.0918086 -0.75359 0.855803 0.241688 -0.457371
0.108996 -0.0123492 -0.619194 -0.29734 -0.391183 0.870956
0.106559 -0.0144811 -0.621441 -0.484836 -0.682185 0.547318
0.152787 -0.0196073 -0.674493 -0.316929 0.85492 0.410693
0.141931 -0.0166822 -0.679672 -0.0217835 0.834974 0.549858
0.168536 0.0953979 -0.752656 0.823794 0.222238 -0.521512
0.171024 0.0934029 -0.747844 0.920663 0.168747 -0.352
0.197578 0.150047 -0.653337 0.873231 -0.0878266 0.479327
0.195194 0.149465 -0.652683 -0.447092 -0.443526 0.776784
0.175774 0.0473609 -0.602338 0.146846 -0.579659 0.801518
0.141517 0.0107058 -0.732612 -0.0963657 0.858232 0.504135
0.139006 0.0165176 -0.744573 -0.135215 0.885919 0.443693
0.092401 0.0653627 -0.754734 0.299949 -0.27322 0.913992
0.197683 0.150591 -0.654553 0.95144 0.262342 -0.161056
0.109639 -0.00955938 -0.621709 -0.0121409 0.357762 -0.933734
0.193706 0.149537 -0.654969 -0.869807 -0.315563 0.379283
0.135339 0.0112285 -0.734917 -0.113804 0.884991 0.451486
0.134464 0.0155064 -0.743721 -0.19376 0.876089 0.441503
0.085683 0.0549261 -0.751011 0.085451 0.604303 0.792159
0.0883173 0.0532173 -0.748981 0.290387 0.373863 0.880853
0.19571 0.156412 -0.649476 0.573814 -0.259512 0.776783
0.148804 -0.0153251 -0.68663 0.107057 -0.863175 -0.493425
0.124744 0.0413259 -0.770832 0.323259 -0.2007 0.924783
0.081213 0.0562763 -0.750386 0.301727 0.0545147 0.951834
0.165356 0.0901757 -0.750932 -0.901612 -0.232841 0.364528
0.103013 -0.013136 -0.625488 -0.891838 -0.444335 0.0848056
0.124441 0.0456768 -0.770082 0.304009 -0.133647 0.943248
0.0815478 0.0535537 -0.750062 0.11483 0.510938 0.851913
0.105351 -0.0119906 -0.621222 -0.721455 -0.323981 0.611996
0.126368 0.0481116 -0.769995 0.135279 -0.30733 0.941939
0.132884 0.0125895 -0.746757 0.125414 -0.803463 -0.581996
0.162845 0.0948049 -0.752187 -0.86033 -0.343381 0.376724
0.196944 0.154803 -0.651507 0.976569 0.145207 0.158836
0.19335 0.154571 -0.651056 -0.766772 -0.409999 0.493924
0.162049 0.0908464 -0.759002 -0.744376 -0.253698 0.61769
0.105252 -0.00711969 -0.619054 -0.397118 -0.527392 0.751103
0.193843 0.159319 -0.647543 0.131407 -0.420452 0.897748
0.103982 -0.0076806 -0.621182 -0.659614 -0.378529 -0.649326
0.0858794 0.063678 -0.7519 0.369429 0.0206169 0.92903
0.104278 -0.0104105 -0.622479 -0.958341 0.226755 0.173679
0.116679 0.0388462 -0.768271 0.32258 -0.295948 0.899087
0.1652 0.0884439 -0.76115 0.727606 0.0473413 -0.684359
0.143258 0.0185363 -0.754544 -0.0295485 -0.922945 -0.383795
0.161112 -0.010419 -0.692405 -0.0455995 -0.895038 -0.443652
0.162254 0.08964 -0.76333 0.437783 0.301244 -0.847112
0.193382 0.157259 -0.659677 0.924184 0.297022 -0.240128
0.0971118 0.0681185 -0.753567 0.152618 -0.498867 0.853135
0.147921 -0.0116406 -0.687419 -0.0942263 0.8651 0.49267
0.10708 -0.00413337 -0.617028 -0.174048 -0.559783 0.810154
0.166437 0.0937967 -0.757407 0.662603 0.451825 -0.597337
0.117923 0.0407233 -0.77244 -0.17294 0.39617 -0.901743
0.122036 0.0415147 -0.77273 -0.209585 0.235681 -0.948962
0.169242 0.0386874 -0.611542 -0.46599 0.0450427 -0.883643
0.112327 0.0396335 -0.771466 -0.249221 0.72441 -0.642743
0.174037 0.0405306 -0.60788 -0.0386723 -0.535476 0.843664
0.1591 0.0899999 -0.760854 -0.245681 -0.2636 0.932821
0.170541 0.0416186 -0.608403 0.00904841 -0.522427 0.852636
0.125988 0.0471907 -0.773148 -0.216351 0.258053 -0.941595
0.147714 0.0221395 -0.756233 0.00594468 0.883137 0.469077
0.158951 0.0900136 -0.764067 0.152375 0.250554 -0.956036
0.0906324 0.0700051 -0.752675 0.0992663 -0.342045 0.934426
0.119786 0.0442282 -0.76832 0.328796 -0.0840213 0.940656
0.104571 -0.0231195 -0.634319 0.0283889 -0.880028 0.474072
0.101472 -0.022007 -0.631765 -0.498505 -0.721165 0.481056
0.0881932 0.0678878 -0.752842 0.213859 -0.101552 0.971572
