ply
format ascii 1.0
comment Created by Open3D
element vertex 675
property double x
property double y
property double z
property double nx
property double ny
property double nz
property uchar red
property uchar green
property uchar blue
end_header
0.0688894 -0.0549882 -0.00557083 0.327445 0.211035 0.921001 182 164 101
0.0565503 0.0438914 -0.0711853 -0.904777 -0.186977 0.382648 146 111 43
0.0354457 0.0792286 -0.0148612 -0.431976 -0.901345 0.031187 207 191 108
0.0666878 -0.0614114 -0.00559883 -0.052939 -0.012745 0.998516 212 197 123
-0.0151333 0.0751264 -0.0735071 0.165327 -0.985098 -0.047426 200 159 72
0.0593002 -0.0473911 -0.0581545 -0.944929 0.145466 0.293169 190 159 84
0.0604618 0.039969 -0.0711712 0.972176 0.028107 -0.232558 172 149 86
0.0697459 -0.0078206 0.0354877 -0.988129 -0.069056 -0.137231 198 185 115
-0.0341895 -0.0883872 -0.0129315 0.655124 -0.750828 0.084082 131 118 65
-0.0313088 0.0804001 -0.0699665 -0.026217 0.999656 0.001203 133 108 47
0.0625825 -0.0700281 -0.00651188 -0.550488 -0.001294 0.834842 192 173 102
0.0584489 -0.050121 -0.0650497 0.98917 0.009058 -0.146493 156 136 75
-0.032737 -0.0855679 -0.00977786 0.761121 -0.622384 0.182575 138 122 70
-0.019824 0.0803096 -0.0711628 0.16359 0.986047 0.030828 147 126 62
0.0574275 0.0398984 -0.0721394 -0.897461 -0.213789 0.385822 149 114 48
0.0685524 -0.0520964 -0.018455 0.961201 0.275135 -0.019824 195 173 100
0.0583875 0.0380243 -0.0696948 -0.942018 -0.184171 0.280504 129 96 37
-0.0338362 -0.0866737 -0.00689522 0.573903 -0.687768 0.444534 123 109 59
0.0712189 -0.0548359 -0.0151034 0.835868 0.548073 -0.030663 190 177 113
0.0573433 0.0420718 -0.0681776 -0.976501 0.030273 0.213378 140 110 52
0.0571087 0.0402512 -0.0667635 -0.911311 -0.286235 0.295942 137 106 48
0.0723034 -0.0125119 0.0344321 0.363624 -0.930107 0.051748 106 96 54
-0.0354227 -0.085733 -0.0049336 0.211954 -0.424303 0.880365 151 142 95
-0.0333089 -0.0840031 -0.00601665 0.716422 0.036244 0.696725 119 101 49
-0.015322 0.0791085 -0.0686192 0.098533 0.971859 -0.213964 119 95 44
0.0725784 -0.0107298 0.040137 0.969383 -0.178698 0.168418 152 140 84
0.0610711 0.0356516 -0.0773396 0.991122 0.08264 -0.104153 141 117 58
0.0523708 -0.0615339 -0.0654463 -0.965892 0.258798 -0.008794 203 172 94
-0.0123137 0.079116 -0.0716552 -0.124348 0.984967 -0.119905 139 112 52
0.0701026 -0.0534983 -0.00969025 0.855141 0.516189 0.047789 204 181 103
0.0612614 0.0274178 -0.0779249 0.996927 -0.0254 -0.074099 136 114 59
-0.0195748 0.0813731 -0.0660355 0.11848 0.900705 -0.417963 153 134 71
0.0353322 0.0799084 -0.00813357 -0.403897 -0.889911 0.211957 208 197 115
0.0717944 -0.0560801 -0.0116073 0.981667 0.161935 0.100534 200 186 117
-0.0119796 0.0811414 -0.0635818 0.172001 0.98033 -0.09679 107 82 35
-0.00948184 0.0811714 -0.0653501 -0.120844 0.992662 -0.004453 109 84 36
0.0484323 0.0765699 -0.0177377 -0.102579 -0.994558 0.018228 213 202 118
0.0608561 0.0365841 -0.0734454 0.993392 0.078704 -0.083537 169 144 80
0.0706151 -0.0551934 -0.00718857 0.855791 0.198478 0.477733 186 172 106
0.0620585 0.0365325 -0.0689505 0.899038 0.060334 -0.433695 183 169 106
0.0592503 -0.0540117 -0.0663356 0.995916 0.021919 -0.087586 156 131 70
-0.00956275 0.0806145 -0.0626522 0.056695 0.969029 0.240351 100 76 33
0.0706095 -0.0641096 -0.0129945 0.987084 -0.158542 0.023014 180 161 91
0.0422792 0.0780529 -0.0115719 -0.176355 -0.975625 0.130598 210 197 116
-0.0475295 0.0216599 -0.0894155 0.971278 -0.226588 0.072648 173 139 72
-0.0485662 0.0197754 -0.0868007 0.966715 -0.018514 0.255186 165 135 69
-0.0483353 0.0214034 -0.0903042 -0.443699 -0.332277 -0.8323 59 49 20
-0.0496852 0.0223336 -0.0871717 -0.856002 -0.064067 -0.512988 152 126 64
-0.049049 0.0158168 -0.083222 0.980361 -0.002967 0.197189 178 147 70
-0.0729502 -0.0458157 -0.0102898 -0.916378 0.310491 0.252679 187 163 86
0.0691211 -0.0704262 -0.00869217 0.900307 -0.25095 0.355629 176 159 91
-0.0509689 0.0162454 -0.0827395 -0.967952 0.13344 -0.212748 187 153 66
-0.072141 -0.0511454 -0.00904509 -0.936911 -0.053877 0.345392 192 170 93
-0.0537244 0.0222624 -0.0772906 -0.986183 -0.084135 -0.142706 170 146 77
-0.0522835 0.0244538 -0.0844845 -0.89188 -0.132756 -0.432349 165 139 68
-0.0416213 0.0747543 -0.075264 0.694758 -0.656544 0.293702 178 135 49
0.0567079 -0.0546159 -0.0582495 -0.872593 0.303171 0.382973 207 173 93
0.0694717 -0.0119924 0.0384263 -0.825137 -0.540726 -0.163596 149 140 92
0.0500665 0.0764154 -0.0235443 -0.144518 -0.981687 0.124122 205 186 104
-0.0711357 -0.0459593 -0.00741891 -0.572412 0.282793 0.769658 142 123 61
-0.0490128 0.0192552 -0.0815858 0.975225 0.055491 0.214142 166 135 56
-0.0402774 0.0760255 -0.0741046 0.372721 -0.927493 0.028923 195 153 62
-0.0501449 0.0225539 -0.0838083 0.94376 0.127788 0.304939 183 153 75
0.0696403 -0.0633401 -0.00745866 0.829107 -0.126414 0.54461 187 172 106
-0.0461515 0.0699879 -0.0781866 -0.827904 0.363593 -0.427054 189 174 108
0.0704983 -0.0128898 0.0403624 -0.132995 -0.990704 -0.028602 114 104 59
0.0590949 0.0759654 -0.0302155 0.621834 0.654229 -0.430473 148 123 65
0.0715192 -0.0124816 0.0414068 0.638535 -0.759852 0.122055 103 93 49
0.0613594 -0.0470586 -0.058668 0.956879 -0.038252 -0.287958 151 130 72
0.0586071 0.0799196 -0.0264483 0.589627 0.767402 -0.25186 144 129 77
0.0586692 0.049532 -0.0693572 -0.922957 0.249724 0.292898 152 130 68
0.0600574 -0.0510821 -0.0604829 0.887669 0.10544 -0.448248 178 157 92
-0.0536032 0.0130141 -0.0799512 -0.855703 0.245586 -0.455478 188 164 87
0.0687061 -0.0119407 0.0435989 -0.850727 -0.510086 -0.126793 152 143 93
-0.0678368 -0.0459336 -0.00663588 0.068229 0.258579 0.963578 138 121 67
0.0680117 -0.0635498 -0.00610627 0.471087 -0.098855 0.87653 186 170 106
0.0573624 0.046998 -0.0692713 -0.720506 0.208109 0.661485 139 111 53
0.0613122 -0.0543059 -0.0599582 0.846486 0.022244 -0.531945 149 131 75
-0.0508884 0.0185176 -0.0780113 0.886609 -0.088609 0.453952 156 121 43
0.0714201 -0.0112325 0.0461669 0.901932 -0.388905 0.187807 147 136 83
-0.0524399 0.0165377 -0.0789787 -0.855855 0.164194 -0.490461 175 141 58
0.0622399 0.042741 -0.0663655 0.980494 0.055506 -0.188548 123 99 48
-0.0508847 0.011747 -0.0771446 0.844001 0.00091 0.536341 176 138 54
0.0588838 0.0475205 -0.0651448 -0.991627 -0.049131 0.119427 150 125 65
-0.0651955 -0.0467165 -0.00755669 0.63505 0.224301 0.739189 183 159 79
-0.0540603 0.0269812 -0.0747599 -0.992853 -0.096628 -0.070036 169 141 74
-0.0548809 0.0319576 -0.0781208 -0.999307 -0.033634 -0.015952 179 157 83
0.0525876 0.0765415 -0.0218799 0.123308 -0.983106 0.135269 135 118 66
-0.0535861 0.0226098 -0.0728054 -0.980759 0.059288 -0.186004 154 131 71
0.059079 -0.0732157 -0.0227927 -0.987674 -0.117552 0.103347 183 159 89
0.0556203 0.0773164 -0.0234854 -0.106775 -0.953113 0.283152 142 125 73
0.0591624 0.0746029 -0.0242026 -0.69454 -0.679621 0.236072 148 126 70
0.0572234 -0.0691324 -0.0170022 -0.981745 -0.059111 0.180784 212 189 107
-0.0511698 0.0244757 -0.0785792 0.995961 0.065097 0.061834 180 145 61
-0.0499457 0.0304721 -0.0832666 0.909609 -0.044429 0.413084 160 125 54
-0.0508419 0.0224069 -0.0778192 0.930534 0.27872 0.237535 169 135 52
0.0576855 -0.037405 -0.0557072 -0.985262 -0.159731 0.061188 179 147 68
0.058882 -0.0718562 -0.0124773 -0.980611 -0.053275 0.188585 177 156 84
0.0695075 -0.0126535 0.0461887 -0.039959 -0.998432 0.039194 121 112 70
0.0518873 0.0880811 -0.013353 0.431132 0.894751 -0.116385 167 156 96
0.0590069 -0.0728218 -0.018292 -0.99939 -0.032191 -0.013573 176 153 84
-0.0390592 0.0760011 -0.0728354 -0.021548 -0.991678 -0.126925 201 158 66
-0.0668816 -0.0566301 -0.00657761 0.22523 0.008128 0.974272 208 189 111
-0.048481 0.0210307 -0.0789466 0.970529 0.23646 0.046483 144 114 43
0.0670497 -0.0109179 0.0510245 -0.920673 -0.318612 -0.225495 188 179 118
0.0532476 0.0863202 -0.0164797 0.859049 0.496944 -0.122805 180 169 107
-0.0510322 0.0266502 -0.0748022 0.989963 -0.08135 0.115564 150 125 64
-0.0449931 0.0746129 -0.0708544 0.732964 -0.64043 0.229375 155 137 84
0.058941 -0.0739976 -0.0146282 -0.971577 0.236551 -0.009055 187 164 90
-0.0517052 0.0204749 -0.075759 0.927668 -0.183966 0.324943 152 118 43
-0.053922 0.0198552 -0.076356 -0.947555 0.143245 -0.285693 143 122 60
0.0694644 0.00860613 0.0419883 0.063234 0.997278 -0.037917 149 134 73
0.0668296 0.00810822 0.0428744 -0.843116 0.521163 -0.132455 171 157 96
0.0625581 -0.041062 -0.0562671 0.95043 -0.200921 -0.237306 153 134 75
0.054155 0.0831882 -0.0127796 0.828663 0.552511 -0.08972 183 164 99
0.0627723 0.0490892 -0.0636294 0.992475 -0.079899 -0.092787 149 130 73
0.0706656 0.00638523 0.0469546 0.935214 0.302652 0.183783 173 157 96
-0.0365916 0.0810615 -0.066291 -0.191446 0.880996 -0.432661 134 101 38
0.067016 0.00704277 0.0466275 -0.911496 0.402033 -0.086864 171 154 91
0.0691965 0.0083265 0.0470132 0.257288 0.961295 0.098561 156 143 82
-0.0534721 0.016665 -0.0742646 0.920076 -0.173513 0.351218 129 107 52
-0.0522029 0.019606 -0.0721872 0.923009 -0.311797 0.22547 164 138 78
-0.0403264 0.0759629 -0.0649203 0.060729 -0.917921 0.392088 199 166 94
0.0584158 0.0756339 -0.0146981 -0.703426 -0.710422 0.022213 194 171 102
0.0593235 -0.0698376 -0.0102533 -0.885529 0.03736 0.46308 225 201 120
0.0574015 0.0448501 -0.0682255 -0.29383 0.091102 0.951506 144 116 57
0.0585455 -0.0316896 -0.0488989 -0.85212 0.004465 0.523328 179 142 56
0.0587179 0.0423445 -0.0650939 -0.965757 0.154266 0.208601 133 103 48
-0.0567197 0.0100539 -0.0762697 -0.88067 0.130472 -0.455409 134 120 68
-0.0555292 0.0153671 -0.07624 -0.856048 0.282885 -0.432617 155 136 73
0.0619682 0.0457541 -0.0635671 0.994667 -0.033154 -0.097667 134 109 53
0.0592737 0.0439761 -0.0629039 -0.960844 0.217177 0.172082 123 95 38
0.0692108 0.00622369 0.0536891 0.922643 0.289817 0.254434 179 163 101
0.0703265 3.8703e-05 0.0487616 0.977551 0.024747 0.209243 199 184 117
0.0600839 -0.0390743 -0.0483278 -0.88022 -0.15471 0.44864 178 144 61
0.0539302 -0.078901 -0.0177451 -0.499999 0.865814 0.019176 199 175 100
-0.0249274 0.0742583 -0.0726459 -0.00413 -0.999874 0.015348 202 164 84
-0.0277943 0.0755713 -0.0653698 0.017581 -0.953739 0.300122 213 185 110
0.0588139 0.0403765 -0.064858 -0.852746 -0.47605 0.214944 138 108 49
0.0652904 0.00357978 0.0556986 -0.959551 -0.088553 -0.267245 199 181 112
0.058023 0.0397149 -0.061505 -0.860274 -0.509712 0.01107 153 124 54
0.05828 0.0419247 -0.0611467 -0.932018 0.298806 0.205081 139 111 49
-0.0506555 0.00495901 -0.0773867 0.784888 -0.075768 0.614987 168 130 50
-0.0537992 0.00325185 -0.0755866 0.703939 -0.060652 0.707666 155 121 48
0.0668306 0.00825807 0.0519261 -0.337689 0.933015 -0.124295 148 131 75
-0.0579712 0.0143227 -0.0685659 -0.956899 0.251254 -0.145655 139 119 64
-0.0567789 0.0189992 -0.0665663 -0.939327 0.122537 -0.320389 141 119 63
0.0656746 0.00700262 0.0521673 -0.929934 0.261892 -0.258137 172 155 93
0.0687729 0.00794201 0.0511892 0.581487 0.798614 0.155209 168 151 92
0.0643395 -0.0395804 -0.0527464 0.827623 0.241951 -0.506459 157 141 81
-0.0457164 0.0622637 -0.0769245 0.88951 -0.274082 0.365583 187 142 53
0.0502486 0.0768464 -0.0101005 -0.04404 -0.983469 0.175637 206 198 124
0.0658292 -0.0368858 -0.0493646 0.650977 0.084211 -0.754412 134 116 66
0.0663431 -0.0408105 -0.0512228 0.889993 -0.160285 -0.426874 172 150 86
-0.0535542 0.0122876 -0.0739624 0.889342 -0.076408 0.450813 182 150 73
0.00164032 -0.0224788 -0.115356 0.028188 0.015577 -0.999481 193 181 117
0.06707 0.00836208 0.0551625 0.417506 0.902636 0.104582 156 139 77
0.059689 -0.0464915 -0.0565217 -0.97687 -0.105757 0.18585 160 130 63
0.0495215 -0.081072 -0.00971067 -0.091618 0.929906 0.356203 198 175 101
0.0603194 0.0435181 -0.0586894 -0.901677 0.229886 0.36624 115 87 32
0.0588412 -0.0814639 -0.0100296 0.615614 -0.718898 0.322809 159 145 84
0.00972503 -0.035733 -0.115851 -0.214422 0.03941 -0.975946 189 171 100
-0.0452236 0.0710275 -0.0725287 0.897911 -0.258227 0.356476 181 152 77
-0.0509527 0.0524982 -0.073044 0.923834 -0.157255 0.349002 140 114 54
-0.0536655 0.0191689 -0.0689461 0.93512 -0.184381 0.302578 162 137 76
0.0551036 0.0773596 -0.0133727 -0.069253 -0.997081 0.032142 208 187 114
0.0674974 0.00605868 0.0600338 0.921813 0.286289 0.26134 183 168 104
0.00982332 -0.0253555 -0.115012 -0.146545 0.057189 -0.987549 195 181 115
0.0574412 0.0766298 -0.00765022 -0.61507 -0.772939 -0.155741 188 163 96
-0.0549648 0.0126774 -0.0692711 0.991949 -0.082714 0.09589 209 185 107
0.0652867 0.00846776 0.0592311 -0.080993 0.99615 -0.03355 143 126 67
0.0585906 -0.0748263 -0.00968795 -0.768238 0.562329 0.305935 208 188 110
0.0638113 0.00741678 0.0583616 -0.859189 0.418797 -0.293944 144 130 75
0.0126801 -0.0339611 -0.116954 -0.192783 0.024329 -0.98094 158 135 63
0.0607475 -0.0732315 -0.00810553 -0.571199 0.114955 0.812722 146 133 79
0.0344261 0.0904055 -0.0122383 -0.913195 0.387122 -0.127323 146 129 73
0.0614119 -0.0445617 -0.0559166 0.989958 -0.103368 -0.096424 155 131 64
0.0624135 0.00673146 0.0623696 -0.946905 0.112375 -0.301236 145 128 70
0.0546131 -0.078527 -0.00962737 -0.53487 0.790616 0.298062 211 190 112
-0.0463055 0.0723342 -0.0668684 0.949667 -0.308755 0.052949 197 174 103
-0.0542716 0.00817088 -0.0746341 0.865378 -0.134439 0.482749 166 132 56
0.0624519 -0.0443358 -0.0530414 0.892648 -0.233703 -0.385437 164 141 70
-0.0427272 0.0756242 -0.0652525 0.294457 -0.928014 0.228222 199 166 96
0.0632146 -0.0516116 -0.0567601 0.902321 0.210118 -0.376387 173 154 81
-0.0454009 0.0745051 -0.0636404 0.835402 -0.533499 0.13222 188 156 87
0.0355553 0.0919267 -0.00920598 -0.205859 0.978538 -0.009245 149 141 87
0.0641633 0.0356318 -0.0657266 0.931524 0.111521 -0.34616 118 96 45
0.0571081 -0.0781921 -0.00783373 -0.326281 0.377592 0.866582 151 137 83
0.0636738 -0.0547087 -0.0574323 0.866347 0.080092 -0.49298 153 130 65
0.0206829 -0.0284034 -0.116933 0.142513 0.037644 -0.989077 158 137 64
0.0198449 -0.0405935 -0.116898 0.173641 -0.063549 -0.982756 172 148 72
0.0534843 -0.0804706 -0.0078417 -0.255006 0.452916 0.854306 165 151 92
0.0336119 0.0885074 -0.00681297 -0.957883 0.223422 -0.180396 136 116 60
0.0606064 -0.0509915 -0.0546993 -0.924933 0.196778 0.325233 203 174 83
0.0336523 0.0904967 -0.00673398 -0.869362 0.494084 0.00958 134 120 65
0.0639734 0.0421974 -0.0582392 0.980832 0.134759 -0.140745 118 93 42
-0.0503332 0.0577814 -0.0681649 0.945467 -0.31636 0.077511 193 164 84
0.0651144 -0.0740722 -0.0229663 0.652163 -0.756997 0.040494 188 174 109
0.0433177 0.0898176 -0.0116257 0.216831 0.974989 -0.048791 150 139 83
0.0641252 0.0438949 -0.0571762 0.948801 -0.123514 -0.290726 134 111 49
-0.0469947 0.067663 -0.0619217 0.96654 -0.243847 0.079618 153 122 57
0.0680491 -0.0729354 -0.0200465 0.580654 -0.81251 -0.051653 171 155 89
0.0616245 -0.0492655 -0.0479005 -0.961576 0.228271 0.152524 192 153 66
0.0607791 -0.0437007 -0.0496959 -0.91502 -0.161402 0.369713 177 143 60
0.0654929 -0.0107245 0.0568362 -0.907597 -0.333912 -0.254501 182 173 113
0.0647987 -0.00448941 0.0577823 -0.958458 -0.041927 -0.282134 202 188 116
0.0640258 -0.0495623 -0.0496829 0.988885 0.078235 -0.126436 188 163 85
-0.00663713 -0.0277487 -0.112352 0.049448 -0.058783 0.997045 255 250 158
0.0651465 -0.0738687 -0.0165175 0.582809 -0.812573 -0.007644 173 156 93
0.0680378 -0.00624095 0.0589405 0.95871 0.038312 0.281794 208 196 128
-0.0200335 0.0754275 -0.0692228 0.124154 -0.970281 0.207705 231 212 139
0.0620356 -0.0395422 -0.0454085 -0.92368 -0.168269 0.34424 189 161 87
0.0351909 0.0914853 -0.00559429 -0.235187 0.939348 0.249625 154 145 89
-0.0562187 0.0282752 -0.0680138 -0.807645 -0.087599 -0.583126 159 137 78
-0.054047 0.0345943 -0.0744541 -0.997543 0.016284 -0.068142 155 129 67
0.0637087 -0.0437736 -0.0503747 0.814515 -0.364973 -0.450954 145 121 58
0.0690584 -0.0727334 -0.0125309 0.762246 -0.645395 0.049462 163 146 81
-0.00718196 -0.0368106 -0.113247 0.116457 -0.117583 0.986211 255 250 152
0.0668968 -0.040751 -0.0489859 0.825382 -0.260634 -0.500813 145 128 72
0.0619224 -0.0783592 -0.00920255 0.658371 -0.593994 0.462298 144 131 72
0.0651164 -0.0741789 -0.0108827 0.603199 -0.79704 0.029626 160 142 79
0.0525409 0.0877527 -0.00343001 0.331132 0.721822 0.607721 163 153 95
0.053106 0.0882306 -0.00532866 0.49266 0.863922 0.104518 138 130 81
0.0699381 -0.0111006 0.0528644 0.948837 -0.222699 0.223859 155 146 90
0.0517547 0.0163918 -0.102237 0.883473 -0.279666 -0.37585 140 121 67
-0.0405513 0.082064 -0.063839 -0.374634 0.817793 -0.436879 126 104 53
-0.03182 0.0840701 -0.0628965 -0.059906 0.941568 -0.331452 118 101 56
0.0679251 -0.0414768 -0.0471521 0.888121 -0.317563 -0.332257 148 123 68
-0.0552861 0.0228414 -0.0681156 -0.862475 -0.00235 -0.506095 162 136 68
0.0625359 0.00387948 0.0644755 -0.937349 -0.127398 -0.324262 201 183 113
0.0644249 -0.0478873 -0.0486256 0.937385 -0.217882 -0.271729 130 108 49
0.00211974 -0.0382009 -0.115732 0.000859 0.00462 -0.999989 208 187 107
-0.0573435 0.021859 -0.0659929 0.127216 0.164596 -0.978123 150 129 69
0.0617119 -0.00436697 0.0670639 -0.934695 -0.036934 -0.353527 199 184 115
0.0480036 0.0129756 -0.10242 -0.827394 0.09436 0.553638 155 129 67
0.0637178 -0.0445146 -0.0456742 -0.953655 0.004334 0.30087 144 116 52
0.00887564 -0.0370492 -0.113036 0.115906 -0.178795 0.977035 255 255 185
-0.0393931 0.0827953 -0.0625216 -0.297687 0.943619 -0.144794 127 107 60
-0.0533391 0.0262561 -0.0667823 0.914306 -0.212647 0.344711 167 140 75
-0.0561896 0.0240602 -0.0631795 0.917839 -0.171192 0.358142 158 128 61
0.00935035 -0.0333639 -0.112565 0.099623 -0.114824 0.988378 255 253 189
0.0631172 0.00843979 0.0634147 -0.348845 0.929088 -0.122896 140 123 67
0.0516336 0.0164069 -0.100557 -0.5541 -0.800453 0.228578 152 129 68
0.065411 0.00792935 0.0633163 0.600359 0.770354 0.214764 159 142 81
-0.050374 0.0322826 -0.0734879 0.992054 -0.079505 0.097508 159 135 74
0.0484826 0.00997201 -0.10002 -0.889677 0.310828 0.334457 176 147 79
-0.0540181 0.0284514 -0.0626802 0.923751 -0.177833 0.339205 156 119 51
0.0499879 0.0109246 -0.0998773 0.661479 0.620938 0.420572 173 158 90
-0.0271471 0.0812067 -0.066372 -0.008859 0.899261 -0.437322 160 136 70
0.0512797 0.0162569 -0.0982524 -0.9366 -0.350093 0.014703 101 88 46
0.0327374 0.0858363 -0.00430404 -0.795523 0.157407 0.585121 127 108 56
0.0641191 -0.0749371 -0.00906398 0.594466 -0.662948 0.455094 153 138 82
0.032363 0.0837719 -0.00519559 -0.383439 -0.546545 0.744489 178 166 105
0.0609077 0.00740605 0.0667445 -0.866761 0.387263 -0.31425 144 128 73
-0.0265322 0.0839923 -0.0631159 0.031917 0.935609 -0.351592 125 104 56
0.0513409 0.020949 -0.093451 -0.978974 -0.120794 0.164375 156 127 62
0.0594667 0.00699097 0.0699388 -0.878937 0.29814 -0.372266 150 135 77
0.0521712 0.0150019 -0.0980265 0.028526 -0.97146 -0.235481 117 99 55
0.0523059 0.0146798 -0.0956723 -0.099651 -0.640733 -0.761269 84 71 34
0.0516956 0.0150923 -0.0939902 -0.987995 -0.096429 0.120697 174 148 87
0.0588773 0.00362794 0.0738352 -0.901224 -0.138858 -0.410504 195 177 110
0.0510704 0.0776047 -0.00746454 -0.037372 -0.904228 0.425412 202 198 150
0.0336953 0.0889787 -0.00298386 -0.753039 0.37459 0.540939 120 106 56
0.0352696 0.090284 -0.00308242 -0.217013 0.77377 0.595135 149 140 88
0.0651563 0.00579207 0.0671825 0.921943 0.198045 0.332864 188 173 109
0.0651639 0.000105737 0.0668901 0.936857 0.01528 0.34938 210 196 126
-0.0529147 0.0390334 -0.0650234 0.945645 0.012867 0.324947 159 130 62
-0.0316989 0.0782581 -0.0625344 -0.012133 -0.742989 0.669193 201 166 84
-0.0215156 0.0788653 -0.0617396 0.147519 -0.868045 0.474064 227 192 97
-0.0368356 0.079122 -0.0610585 -0.064159 -0.981159 0.182238 200 151 67
0.0358234 0.0881905 -0.00144338 -0.227217 0.331995 0.915506 180 171 108
0.0499885 0.0110812 -0.0973027 -0.568392 0.814942 0.113141 171 143 77
0.0350936 0.084449 -0.00158102 -0.424639 -0.345648 0.836785 185 171 106
0.0510978 0.0111427 -0.0964171 0.589989 0.49048 -0.64136 186 172 101
-0.0559148 0.0281018 -0.0580888 0.965318 -0.201014 0.166599 157 120 53
0.0492957 0.00769065 -0.0956827 -0.890305 0.192066 0.412878 179 149 82
0.0383153 0.0856786 -0.000998205 -0.025735 -0.118161 0.992661 221 208 137
0.0438507 0.0870501 -0.00133142 0.097603 0.361296 0.927329 199 188 122
0.0506215 0.0133594 -0.0978331 0.094637 0.095283 0.990941 147 117 59
0.0514868 0.0131322 -0.0978939 0.094637 0.095283 0.990941 124 95 38
0.0506356 0.0134136 -0.0978397 0.094637 0.095283 0.990941 146 117 59
0.0614446 0.00832913 0.0696644 -0.047438 0.998839 0.008438 143 125 68
0.0626889 0.00683263 0.0728985 0.818876 0.46807 0.332193 184 170 106
-0.0601311 0.0196556 -0.0567038 -0.962181 0.155886 -0.223398 124 99 46
0.05269 0.0814045 -0.00293139 0.162657 -0.510352 0.844443 193 180 108
0.0625826 -0.0742718 -0.00776987 0.082559 -0.361106 0.928863 175 162 101
-0.0546596 0.0186965 -0.0651341 0.973034 0.097507 0.209038 167 142 77
0.0598971 -0.0608424 -0.059753 0.835912 -0.206908 -0.50837 151 132 74
0.0578104 0.00703002 0.0735811 -0.880057 0.256504 -0.399632 142 126 70
0.0648327 -0.0714985 -0.00568842 -0.008518 -0.305439 0.952174 191 174 108
0.0534423 0.0168134 -0.097348 0.899572 -0.382797 -0.210325 148 130 74
0.0599678 0.0085262 0.0729983 -0.054658 0.995133 -0.081987 139 120 64
0.0588314 -0.0783482 -0.0076304 0.188703 -0.204449 0.960516 160 148 90
0.0605634 0.000247569 0.0779612 0.899878 0.014628 0.435897 222 209 137
-0.0579486 0.014578 -0.0650692 -0.945628 0.268352 -0.183781 170 145 73
-0.058272 0.0165272 -0.0607803 -0.896943 0.231222 -0.376868 126 96 37
0.0601956 0.00793469 0.0763999 0.56353 0.774997 0.286029 152 133 73
0.0575464 0.00798401 0.0763482 -0.61565 0.757793 -0.216157 132 117 64
0.05718 0.00825036 0.0788924 -0.226849 0.970953 -0.076092 130 111 55
0.0536018 0.0159926 -0.0946465 0.924054 -0.192358 -0.330337 139 119 64
0.0546014 0.0190391 -0.0909636 0.95308 -0.134066 -0.271411 131 105 49
0.051485 0.0124546 -0.094525 -0.944691 0.268158 0.188811 185 156 93
0.0674071 -0.0726722 -0.00715661 0.544803 -0.590627 0.595273 160 145 84
-0.0435369 0.0777545 -0.061528 0.626439 -0.718193 0.302939 131 102 47
-0.040934 0.0793855 -0.0619188 0.240419 -0.870978 0.42848 86 69 32
0.0603071 -0.0632321 -0.0586205 0.535973 -0.13753 -0.832958 135 112 54
0.0634904 -0.0612753 -0.0576838 0.568813 -0.032622 -0.82182 155 128 59
0.0540151 0.086639 -0.00986065 0.873483 0.469872 -0.127465 169 151 87
0.0642665 -0.0624217 -0.0566144 0.901069 -0.151488 -0.406357 145 127 66
-0.0547949 0.0113878 -0.0676335 0.964889 0.002275 -0.26265 205 180 103
0.0521894 0.00747061 -0.0959462 0.815657 0.070876 -0.574177 179 168 105
-0.028519 0.0762231 -0.064033 -0.001555 -0.782246 0.622967 217 188 116
0.0545631 0.0105495 -0.093401 0.853107 0.051266 -0.519211 105 83 34
0.052986 0.0116347 -0.0911432 -0.923837 0.09742 0.370182 164 137 69
0.05853 0.0807997 -0.00762565 0.590204 0.800747 0.102292 164 151 94
0.0615741 0.0782614 -0.00780617 0.701937 0.707807 0.079331 188 175 112
-0.0572748 0.0241342 -0.0590163 0.97104 -0.21032 0.113346 169 139 73
0.00849725 -0.038616 -0.115568 -0.116466 0.002012 -0.993193 187 168 90
0.0547085 0.00578343 -0.0938346 0.834899 0.033694 -0.549371 100 79 32
0.0511991 0.00689521 -0.0927399 -0.872971 0.121746 0.472335 199 167 83
0.0697721 -0.0123161 0.0502618 0.495034 -0.859295 0.128658 116 105 64
0.00985585 -0.0423247 -0.115999 -0.023028 0.062259 -0.997794 150 134 71
-0.0593123 0.0225323 -0.0546081 -0.997871 0.034232 -0.05551 151 120 56
-0.0381441 0.0796797 -0.0572542 -0.021933 -0.998083 -0.057875 190 152 74
-0.0579815 0.0205793 -0.0561727 0.946794 -0.099663 0.306021 140 110 48
-0.0559521 0.0289415 -0.05423 0.968833 -0.154457 0.193666 148 112 44
0.052885 0.00556228 -0.0874571 -0.966263 0.140612 0.215785 205 177 92
0.0550881 0.0832009 -0.0067711 0.872943 0.487029 0.027804 175 158 96
0.0548677 0.0861325 -0.00403389 0.879963 0.356435 0.314037 145 132 80
0.0567677 0.000872157 -0.0878178 0.998943 -0.035953 -0.028646 133 116 67
0.0565154 0.00914332 -0.0872866 0.997721 0.0474 -0.048029 126 105 54
0.0485363 -0.0867568 -0.0193048 0.669145 -0.741372 -0.051118 169 153 90
0.0583384 -0.0546059 -0.0553267 -0.862389 0.365713 0.350056 243 214 122
0.0474814 -0.0894399 -0.0187824 0.764628 -0.628826 -0.141147 127 117 64
-0.0591962 0.00765727 -0.0694966 -0.982974 0.106306 -0.149869 136 119 67
0.0129258 -0.0335947 -0.113376 0.08253 -0.130283 0.988036 255 232 128
-0.0545067 -0.0045306 -0.0749715 0.91022 0.093832 0.403355 159 126 52
0.0138997 -0.0375353 -0.114329 0.035345 -0.160009 0.986483 254 233 132
0.0211269 -0.0373627 -0.113556 -0.179809 -0.226063 0.957374 244 219 125
0.0233256 -0.035195 -0.112539 -0.047417 -0.102042 0.993649 255 233 129
0.0475576 -0.0899684 -0.0150491 0.755124 -0.651097 -0.07655 139 131 76
0.0593744 -0.0550105 -0.0502072 -0.923331 0.384002 0.001465 234 202 113
-0.0595988 -0.000929562 -0.0691417 -0.991417 -0.03575 -0.125757 148 129 76
0.0122476 -0.045996 -0.115842 0.047192 0.136261 -0.989548 167 141 66
-0.0558595 -0.00180395 -0.0701156 0.996468 0.02316 0.080718 172 139 65
0.06753 -0.0122252 0.052465 -0.513554 -0.846784 -0.138635 134 127 85
0.00869088 -0.0416596 -0.114046 0.068095 0.126354 0.989645 249 235 147
0.0667682 -0.0126718 0.0577264 -0.188546 -0.981951 -0.014904 104 97 61
0.019484 -0.0422135 -0.114661 -0.164234 0.101575 0.981178 252 235 138
0.0461104 -0.0909021 -0.0117437 0.207184 -0.977561 -0.038064 157 147 87
-0.0590273 0.0102975 -0.065291 -0.965277 0.143014 -0.218604 185 167 96
0.0561678 0.0252199 -0.0839181 -0.760468 -0.025724 0.648865 156 124 55
0.0641808 -0.0112606 0.0614158 -0.838782 -0.461413 -0.289037 182 169 109
0.0555376 0.0778987 -0.00704436 -0.273779 -0.858956 0.432712 191 170 102
-0.0592346 0.00296303 -0.0659491 -0.992842 0.038076 -0.113201 177 156 87
0.0549826 0.079817 -0.00504809 0.202975 -0.478748 0.854167 190 172 106
0.0515874 0.0796301 -0.00447665 0.024499 -0.751846 0.658884 202 196 137
-0.0556452 0.00585097 -0.0692309 0.991184 -0.060951 -0.117643 194 163 83
0.0481701 -0.0874138 -0.0141313 0.861599 -0.505639 -0.044459 157 141 78
0.0605287 0.0766542 -0.00510569 0.03338 -0.012468 0.999365 152 141 89
0.0612978 0.0726905 -0.00660554 -0.737902 -0.45477 0.498684 159 139 76
0.0611005 -0.0518279 -0.0510659 -0.946509 0.317548 0.057309 235 193 90
0.0680132 -0.0113851 0.059791 0.882182 -0.396207 0.254508 145 135 85
0.0663148 -0.0126158 0.0606693 0.056749 -0.998364 0.006985 96 88 57
0.0653357 -0.0563951 -0.0505679 0.998935 0.045382 -0.008308 185 165 88
-0.0196219 0.0764781 -0.0645783 0.143969 -0.863972 0.482519 228 206 135
0.0540108 0.084266 -0.00208658 0.551306 0.022518 0.833999 176 166 107
0.0197906 -0.0462447 -0.116547 0.040898 0.259768 -0.964805 195 174 96
0.0612211 -0.0108011 0.0693342 -0.890201 -0.240705 -0.386787 213 201 132
0.0545071 -0.0844103 -0.0101918 0.462739 -0.873733 0.149877 163 149 90
0.0494944 -0.0864626 -0.00941043 0.718841 -0.685217 0.117239 156 140 78
0.0650948 -0.0112559 0.0686389 0.877256 -0.331486 0.347187 154 142 86
0.0664701 -0.0120288 0.0641181 0.689462 -0.677358 0.256569 110 100 57
0.0629435 -0.0122189 0.067177 -0.514311 -0.823499 -0.239446 153 141 91
0.0588807 0.0214174 -0.0839049 0.912169 -0.150819 -0.381054 117 91 36
-0.0536677 0.00248472 -0.0654946 0.937359 -0.082735 -0.338397 178 156 85
-0.0533974 0.00999759 -0.0642435 0.995919 0.077836 -0.045679 172 148 82
-0.00821009 0.0767251 -0.0732315 0.010758 -0.980019 0.198613 203 159 66
0.0639175 -0.0126092 0.0680591 0.232055 -0.971725 0.04359 95 84 44
0.055761 0.0820279 -0.00557416 0.739249 0.420733 0.525828 150 140 87
0.0647883 -0.054723 -0.0467526 0.993396 0.108877 -0.0362 162 134 66
0.060262 0.0789414 -0.00587402 0.512179 0.591121 0.623096 146 138 89
-0.0107274 0.0784519 -0.0638889 0.020707 -0.94676 0.321273 230 208 137
-0.0145021 0.0780226 -0.0641083 0.015223 -0.431046 0.902201 224 205 134
0.0497912 -0.0825482 -0.00770869 0.287787 0.562608 0.775016 148 129 68
0.0581082 -0.00379396 0.0755095 -0.896875 -0.023515 -0.441659 197 185 117
0.0480966 -0.0839687 -0.00422884 0.407377 0.423313 0.809228 165 153 94
0.0547941 0.0132373 -0.0858446 -0.920764 0.140376 0.36399 163 136 69
0.0635605 -0.0515207 -0.0448794 0.988279 0.089337 -0.123786 177 153 81
0.0504079 -0.0844575 -0.0077057 0.605673 -0.313555 0.73133 143 126 68
0.0610574 -0.0522505 -0.0403455 -0.872328 0.421637 0.247521 188 151 74
-0.0549292 -0.00857163 -0.0693471 0.918286 0.358189 0.168676 171 140 75
0.0632268 -0.047822 -0.0398544 -0.977515 0.160364 0.136924 176 141 69
0.0661883 -0.0467538 -0.0394642 0.957889 -0.286823 0.013441 167 146 90
-0.0586823 -0.0051492 -0.0704478 -0.946711 -0.157909 -0.280717 144 124 66
-0.0584112 -0.0104066 -0.067656 -0.960801 0.055497 -0.271626 122 100 51
-0.0588291 -0.0057588 -0.0695214 -0.979413 -0.145069 -0.140376 141 115 57
-0.0588291 -0.0057588 -0.0695214 -0.946545 -0.189786 -0.260834 141 115 57
0.0602928 0.0189759 -0.077847 0.96547 -0.220059 -0.139436 132 110 56
0.0552223 -0.0833745 -0.00846759 0.428597 -0.661973 0.614895 136 124 74
0.0618826 0.077083 -0.0259111 0.728787 0.616469 -0.298054 171 156 101
-0.0553933 -0.00838963 -0.0663613 0.970422 -0.117454 0.210915 154 129 68
0.0563454 0.014795 -0.0864716 0.981232 -0.150098 -0.121053 129 107 53
0.0546868 -0.0819414 -0.00759106 0.126384 -0.176393 0.976172 150 139 81
-0.0165916 0.0805109 -0.0619035 0.117258 -0.851515 0.51105 144 114 55
0.0239717 -0.0293494 -0.115824 0.13603 -0.000739 -0.990704 181 166 95
0.0231178 -0.0361381 -0.115802 0.188872 -0.04475 -0.980982 187 170 94
0.0649664 -0.0510034 -0.0406311 0.902913 0.14268 -0.40545 184 162 88
0.0646299 0.0734884 -0.0253327 0.787076 0.593353 -0.168652 169 149 90
0.0486813 -0.0868051 -0.00502875 0.646619 -0.440369 0.622864 148 137 85
0.0580101 0.0172929 -0.0817805 0.608058 -0.764451 -0.214194 101 79 30
0.0557152 0.0143577 -0.0848909 0.10043 -0.393148 0.913974 131 101 43
-0.0609672 0.00622423 -0.0596049 -0.86013 0.022384 -0.509583 179 162 98
-0.0533102 0.00328334 -0.0639184 0.998058 -0.053797 0.031408 172 149 85
0.0394709 -0.0423789 -0.116105 0.485506 -0.091435 -0.869438 166 153 90
0.0399225 -0.0367349 -0.11648 0.322401 -0.068102 -0.94415 180 166 97
-0.059413 -0.0040359 -0.0654941 -0.964651 -0.205927 -0.164449 179 157 97
0.0563117 0.00677018 0.0772845 -0.888191 0.23081 -0.397296 138 125 72
-0.00852592 0.0786091 -0.062179 -0.192822 -0.960968 0.198393 188 155 85
-0.0109913 0.0797864 -0.0611647 -0.085285 -0.890871 0.446178 16 13 6
0.0554172 0.00969931 -0.0829255 0.715432 0.689783 0.111166 216 189 104
0.047369 -0.0905603 -0.00912947 0.553698 -0.811708 0.185873 151 140 81
-0.0589561 -0.00528962 -0.0668386 -0.977638 -0.209416 0.019221 145 126 77
-0.0614162 -0.00394624 -0.059461 -0.86194 -0.16158 -0.480574 173 153 93
0.0407449 -0.0397543 -0.115128 0.831695 -0.435315 -0.344651 166 153 91
0.0542768 0.00371495 0.0825625 -0.8487 -0.123242 -0.514315 189 173 109
0.0541762 0.00952243 -0.082747 -0.823679 0.497484 0.272145 189 158 84
0.0400899 -0.0422661 -0.115016 0.986333 -0.120472 0.112402 213 191 118
0.0592587 0.00546433 0.0808567 0.870628 0.174435 0.459978 202 188 120
-0.0544799 -0.003901 -0.0641606 0.974832 -0.206646 0.083667 161 139 76
0.0572506 0.0179302 -0.0813343 -0.935894 -0.274078 0.221322 164 133 66
0.0576034 0.0263574 -0.078354 -0.999321 -0.00893 0.035759 169 140 70
0.0228766 -0.0435836 -0.115249 0.172727 0.069528 -0.982513 161 145 76
-0.0108306 0.0798675 -0.0609014 0.074861 -0.926755 0.368131 159 126 60
-0.0104381 0.0803104 -0.0609583 0.345372 0.894288 0.284546 96 74 34
-0.0548362 0.0010225 -0.058564 0.878061 -0.128452 0.460986 139 116 61
0.0580636 0.0147086 -0.0803922 0.85261 -0.376442 -0.362418 119 99 45
0.0540154 -0.00355057 0.0829656 -0.846597 -0.015503 -0.532008 206 194 126
0.0472068 -0.0853687 -0.00386997 0.155254 -0.102144 0.98258 180 166 99
0.0574317 0.0162825 -0.0788136 -0.992289 0.040399 0.117178 192 161 91
0.0569539 0.0146703 -0.0817132 -0.31538 0.063883 -0.946813 99 82 39
0.0555227 0.0107664 -0.0797356 -0.923041 0.34735 0.165358 204 174 105
0.0562401 0.0112916 -0.0810825 0.06698 0.346407 -0.93569 124 100 36
0.0579258 0.0142747 -0.0778401 -0.11363 0.983352 0.141799 123 100 44
0.0581797 0.0144536 -0.0782271 0.402489 -0.896902 0.183218 155 134 79
-0.00710341 0.0767475 -0.0839496 -0.100082 -0.993537 0.053561 244 228 147
0.0232364 -0.0389895 -0.113137 -0.137741 -0.073815 0.987714 248 218 118
0.0594862 0.0146518 -0.0743046 0.685128 -0.3205 0.654125 125 101 49
0.057723 0.0188122 -0.0745723 -0.982832 -0.109677 0.148364 155 126 64
0.0570358 -0.0109541 0.0781058 -0.856058 -0.252347 -0.451095 210 200 133
-0.00459586 0.0763097 -0.0889426 -0.034485 -0.970431 0.238901 192 171 106
0.0582179 0.0145544 -0.0778561 -0.820993 -0.561105 -0.105508 111 91 46
0.058078 0.0139628 -0.0759229 -0.928903 0.086526 0.360072 179 148 82
0.060032 -0.0120901 0.0731095 -0.643209 -0.700242 -0.309747 173 163 106
0.0609828 0.0712856 -0.0227239 -0.993518 0.024962 0.110901 167 137 71
0.0202305 -0.0453668 -0.113725 -0.113707 0.107753 0.987654 227 201 107
0.0595318 0.0126253 -0.0757416 0.918641 0.158948 -0.36171 119 94 39
0.0608392 0.0726228 -0.0192389 -0.895318 -0.444442 0.029615 183 157 86
0.0590143 0.0159981 -0.0730503 0.042223 -0.901332 0.431066 124 97 38
0.0390428 -0.040966 -0.113977 0.299493 -0.148554 0.942463 254 234 136
-0.0608607 0.0136833 -0.0597209 -0.842955 0.283934 -0.456956 184 163 91
0.0320765 -0.044587 -0.115613 -0.048884 0.150776 -0.987359 185 169 98
-0.00531956 0.0783029 -0.0852543 -0.005735 0.99955 0.029428 155 136 81
0.0482963 0.000464722 -0.0958275 -0.884911 0.060236 0.461849 169 138 68
-0.0691488 0.0619269 -0.0302359 -0.995765 -0.091822 -0.004544 126 103 51
0.0693019 0.0663866 -0.0254494 0.917186 0.397912 0.020887 181 159 89
0.062478 -0.0115056 0.0748374 0.842758 -0.388383 0.372716 146 135 83
0.0252079 -0.0465539 -0.116028 0.054436 0.544089 -0.83726 211 186 106
0.0513886 -0.00161347 -0.0961389 0.78392 -0.082955 -0.615295 154 138 79
-0.0677884 0.0561654 -0.026412 -0.976872 -0.197741 -0.081364 156 141 85
0.000536186 0.0756763 -0.0853937 -0.115744 -0.986916 -0.112253 241 212 108
-0.0683879 0.0612093 -0.02707 -0.997845 -0.000508 -0.065612 168 149 85
-0.0621961 0.0148095 -0.0567639 -0.878912 0.297586 -0.372769 148 125 60
0.0613963 -0.0127859 0.0737047 0.14144 -0.988734 0.048993 104 93 56
0.0672833 0.0694115 -0.0143877 0.782182 0.622225 -0.032045 204 183 112
0.0543219 -0.00152949 -0.094194 0.785332 -0.069837 -0.615123 106 85 36
-0.068798 0.0573237 -0.0230333 -0.8034 -0.59213 -0.062697 216 198 118
-0.0708237 0.0602125 -0.0220512 -0.962472 -0.094463 -0.254412 191 177 111
-0.067624 0.0554789 -0.0187194 -0.976198 -0.21644 0.013856 199 181 113
0.0694907 0.0671653 -0.0198125 0.775429 0.623087 -0.102334 194 179 108
0.0701837 0.0650831 -0.0202932 0.973984 0.205286 -0.095987 195 181 112
-0.067344 0.0676149 -0.0262497 -0.972548 0.226894 0.051659 142 125 70
-0.069096 0.0664315 -0.0225714 -0.931795 0.25303 -0.260257 193 178 110
0.00545197 0.078771 -0.0858097 0.000194 0.996249 0.086536 146 128 76
-0.0706783 0.0588113 -0.0197931 -0.863554 -0.492201 -0.109603 188 175 113
-0.0565424 0.0165057 -0.0574875 0.84331 0.143983 0.517782 154 129 67
-0.0550827 0.0101609 -0.0579119 0.863191 0.089353 0.496907 149 126 66
0.0621591 -0.0319618 -0.0460984 -0.885772 0.024878 0.463453 210 180 100
-0.0714323 0.060581 -0.0159569 -0.99794 -0.028293 -0.05757 192 176 108
-0.0690799 0.06938 -0.0184823 -0.955362 0.271097 -0.11743 207 194 123
2.666e-05 0.0749716 -0.0908702 -0.040569 -0.907553 0.417973 225 188 97
0.0627603 -0.0304153 -0.0411184 -0.971155 0.066165 -0.229084 223 201 120
-0.0707058 0.0582761 -0.0145071 -0.753887 -0.656741 -0.018603 184 168 105
-0.0682699 0.0571172 -0.0144278 -0.723165 -0.690673 -0.001898 180 158 93
0.0539024 -0.00715595 -0.0937646 0.796831 -0.137368 -0.58838 98 78 31
0.0641759 0.0751775 -0.00666279 0.74065 0.539523 0.40044 172 161 105
0.0338091 -0.0492867 -0.118121 0.03079 0.245365 -0.968942 178 162 94
0.0614416 0.0711853 -0.0137354 -0.995672 -0.074339 0.055775 140 118 61
0.0622989 -0.0381197 -0.0412251 -0.969087 -0.09992 -0.225579 217 196 118
0.0146844 0.0754603 -0.0877236 0.056753 -0.989349 0.134041 249 232 132
-0.0597702 0.015991 -0.0545171 0.9022 0.019041 0.430898 128 103 45
-0.00823496 0.0784194 -0.0815743 0.395222 0.866177 0.305839 139 119 57
0.0559411 -0.0108121 0.0869465 0.815731 -0.193946 0.544948 197 189 123
0.0603822 -0.0109252 0.079335 0.860245 -0.259946 0.438641 201 191 125
0.0692655 -0.0344067 -0.047469 0.91586 -0.073857 -0.394646 127 102 46
-0.00626722 0.0772534 -0.0813882 0.044705 0.872784 0.486055 145 124 61
-0.000748375 0.0779525 -0.0816691 -0.072674 0.996903 0.030033 157 137 73
0.0700499 -0.0303747 -0.0408806 0.994098 0.048501 0.097038 129 104 51
-0.0675307 0.0553434 -0.0116163 -0.982591 -0.185497 0.010247 200 184 118
-0.0646601 0.0557522 -0.029856 0.980735 -0.171525 0.093481 186 150 67
-0.0637699 0.0572301 -0.0294776 0.474749 -0.872489 -0.115659 165 131 59
-0.0584442 0.0116468 -0.0548888 0.833737 0.084431 0.545669 175 146 72
0.0536392 -0.0115609 0.0840233 -0.730283 -0.500298 -0.465176 208 196 129
0.0495921 -0.0114124 0.0895358 -0.702018 -0.321291 -0.635565 215 203 135
0.0491734 -0.00646545 0.0896474 -0.705818 0.010656 -0.708313 203 193 128
0.0524218 -0.0128602 0.0877028 -0.302794 -0.911069 -0.279765 156 146 101
-0.0638872 0.0138019 -0.0511115 -0.951859 0.25507 -0.170011 128 103 45
0.0595213 -0.0128373 0.0778848 0.272025 -0.953848 0.127187 107 99 62
0.057292 -0.01261 0.0795317 -0.410922 -0.886435 -0.213015 145 136 93
0.0697218 -0.036308 -0.0408534 0.988092 -0.124944 0.089799 148 124 72
-0.0600677 0.0572749 -0.0315288 0.141471 -0.989881 -0.010993 164 139 73
-0.0628648 0.0564304 -0.0262175 0.301418 -0.946469 -0.115518 157 133 67
-0.0605312 0.0566737 -0.0255612 0.343907 -0.938966 0.00843 147 120 54
-0.0640789 0.0554943 -0.025727 0.902699 -0.427109 -0.052072 142 116 55
-0.0585721 0.0579033 -0.0289639 0.741532 -0.669773 0.039171 175 151 81
0.0144747 0.077687 -0.0814299 0.119217 0.992755 -0.014997 165 152 89
0.0614249 -0.0241577 -0.036557 -0.928949 0.343263 -0.13865 185 156 82
0.0702403 0.0580154 -0.0251343 0.995138 0.065943 0.073156 165 141 72
0.0599307 -0.0311245 -0.0371725 -0.962519 0.109679 -0.248046 195 170 95
-0.0020172 0.0788488 -0.0761381 -0.154335 0.857267 -0.491196 147 125 60
-0.0555927 0.00452349 -0.0570436 0.725782 -0.037699 0.686891 148 123 62
0.00918268 0.0790925 -0.0760009 0.008696 0.854642 -0.519145 191 174 101
0.0582453 -0.0122269 0.0821095 0.635191 -0.703669 0.318406 116 108 64
-0.0638291 0.00555367 -0.0566756 -0.876097 0.056678 -0.478792 120 98 46
0.0401734 -0.0498337 -0.114126 -0.072 0.100896 0.992288 250 219 116
-0.00780065 0.0768325 -0.0804057 0.279431 -0.510313 0.813326 190 151 66
0.0559167 -0.0130163 0.0838666 -0.062735 -0.998029 0.001299 101 95 62
0.0398447 -0.0459634 -0.114165 0.682195 0.184536 0.7075 192 167 85
-0.0646644 0.0478711 -0.0219603 0.989056 0.145241 0.025945 174 154 91
-0.00558378 0.0758636 -0.0808334 -0.459766 -0.886954 -0.043916 218 180 88
-0.0634969 0.0566101 -0.0203083 0.577089 -0.816587 0.012386 109 87 41
-0.00656278 0.0768417 -0.0788072 -0.936062 0.336377 -0.103144 93 76 26
0.0552132 -0.0127682 0.0862924 0.355582 -0.910853 0.209545 94 89 53
-0.058745 0.00402857 -0.0552264 0.748414 -0.051638 0.661219 152 124 59
-0.0599845 -0.000334401 -0.0528827 0.970677 -0.025365 0.239047 150 115 56
-0.0606716 0.0571067 -0.0165263 0.528234 -0.847277 0.055597 161 137 70
-0.00669955 0.0766975 -0.0770304 -0.604046 0.59573 -0.529372 167 132 57
-0.00853413 0.0791168 -0.0741476 -0.080023 0.893793 -0.441282 132 111 52
-0.00745443 0.0763321 -0.075623 -0.33854 -0.937411 -0.081558 209 163 63
-0.00553253 0.077289 -0.0765359 -0.25242 0.855242 -0.452598 101 79 30
0.0684888 -0.0328544 -0.0367642 0.999929 -0.005539 0.010579 169 143 75
0.0527849 -0.0128851 0.0896538 0.451732 -0.839134 0.302973 111 104 70
0.0393661 -0.0455807 -0.11638 0.538183 0.306521 -0.785114 179 159 89
0.0686916 -0.0250199 -0.0359147 0.938808 0.314615 -0.140207 185 164 89
-0.064463 0.0545367 -0.0199473 0.976043 -0.217563 0.002559 146 123 63
0.0708394 -0.0349168 -0.0293029 0.963739 -0.030432 -0.265104 177 163 97
0.0374178 0.00109604 0.0944293 -0.328466 0.584877 -0.741639 199 190 122
0.0397529 0.000688656 0.0936892 0.151208 0.565725 -0.810612 150 143 89
0.0364987 -0.00172475 0.0927822 -0.543269 0.170383 -0.822087 190 182 120
0.0407102 -0.00264527 0.0921584 0.185444 0.178135 -0.966374 105 99 60
0.038844 -0.00671798 0.0929551 -0.440958 -0.309956 -0.842308 180 170 102
0.0355445 -0.0040506 0.0944631 -0.872438 -0.264789 -0.410777 166 152 90
0.0348074 -0.000728568 0.0970786 -0.991403 -0.03455 -0.126203 123 116 68
-0.0639487 0.0558514 -0.0145141 0.811382 -0.584087 -0.022417 123 101 52
-0.000511059 0.0735409 -0.0754402 -0.193592 -0.949899 0.245384 210 163 62
0.0356175 0.00510776 0.0981948 -0.377359 0.638764 -0.670508 194 181 116
0.0349056 0.00185682 0.0973798 -0.867935 0.133113 -0.478508 169 160 94
0.039129 0.0057844 0.0984412 -0.28304 0.619281 -0.732379 184 170 107
0.0628243 0.073528 -0.00504206 -0.056903 0.002677 0.998376 188 170 106
0.0645924 0.0712486 -0.00489141 0.044559 0.352679 0.934683 154 138 82
0.0671841 0.0701328 -0.00670556 0.748216 0.617895 0.241615 192 178 114
0.00399891 0.0737865 -0.0816641 -0.092269 -0.949463 -0.300012 227 190 89
0.0423135 0.00154079 0.0958808 -0.027286 0.421691 -0.906329 170 160 99
0.0342656 0.00473888 0.0989606 -0.744283 0.451645 -0.491996 183 172 110
0.0339087 0.0060116 0.102153 -0.728724 0.458686 -0.508496 177 162 97
0.0386612 0.0075908 0.100708 -0.166256 0.934039 -0.316119 130 109 55
0.0428293 0.008306 0.0975736 -0.175637 0.964495 -0.197232 132 109 54
0.0437658 0.0067184 0.0952666 -0.632145 0.310852 -0.709763 179 166 104
0.0439238 0.00240823 0.0953051 -0.589307 0.068391 -0.805009 198 185 117
0.059739 -0.0358524 -0.037159 -0.969778 -0.036628 -0.241225 203 178 102
0.0405037 -0.0498788 -0.117236 0.378647 0.131909 -0.916093 164 142 74
0.00638561 0.0724501 -0.076501 -0.047052 -0.99731 0.056203 218 171 69
0.0602434 -0.0400993 -0.0364226 -0.957107 -0.250804 -0.145066 180 151 74
-0.0655712 0.00614788 -0.0502603 -0.993958 0.087378 -0.06643 139 117 62
0.0349363 -0.000283379 0.0990247 -0.708979 -0.310848 0.633027 66 63 34
0.0336288 0.00317318 0.100262 -0.928552 -0.266522 -0.258375 121 109 56
-0.0604736 0.0151707 -0.0498077 0.998476 0.042015 0.035793 194 162 84
-0.0597539 0.00769029 -0.0502364 0.999661 -0.003762 -0.025756 197 169 92
0.033021 0.00233271 0.101166 -0.587049 -0.572875 -0.572003 181 170 108
0.0680332 -0.0426465 -0.0391039 0.914223 -0.405135 0.007887 155 136 84
-0.0679947 0.0475845 -0.0211776 -0.888001 0.455748 -0.061225 166 150 88
-0.0680967 0.0479072 -0.0145455 -0.884109 0.467274 0.002263 170 151 89
0.0362371 0.0025055 0.100881 -0.58025 -0.814148 0.021749 105 95 48
0.0342381 0.00262844 0.101642 0.139773 -0.691289 -0.708931 151 141 88
0.0413844 -0.0482781 -0.115056 0.431264 0.683796 0.588586 179 156 82
0.0354815 0.00156625 0.102419 -0.523497 -0.413788 -0.744802 180 168 102
0.0637326 -0.042837 -0.0427622 -0.983941 -0.165822 -0.066062 166 129 58
0.0384938 0.000407762 0.098757 -0.496502 -0.689639 0.527147 65 57 28
0.0434732 -0.0498558 -0.115097 0.490318 0.308433 -0.815142 136 120 62
0.0385693 -7.7689e-05 0.0996764 -0.793442 -0.365391 -0.486764 101 93 51
0.00859118 0.0729418 -0.074827 0.042386 -0.820848 0.569571 219 174 76
0.0368077 -0.00180565 0.0989156 0.20924 -0.135862 0.96838 14 14 4
0.0389482 -0.00061446 0.0981328 -0.256178 -0.638223 0.725978 56 50 25
-0.0705377 0.0441922 -0.0225322 -0.950601 0.228885 -0.209687 174 156 89
0.0384505 -0.00872975 0.0951955 -0.675702 -0.583637 -0.450327 205 194 125
0.0658385 0.0415073 -0.0405832 -0.998708 -0.032029 0.039453 181 152 77
0.0436476 -0.0480852 -0.113362 -0.556069 0.594752 -0.580566 116 99 49
0.0428843 -0.0476087 -0.111683 -0.997203 -0.068973 -0.028787 158 135 63
0.043011 -0.0446671 -0.113022 -0.396382 0.122282 -0.909906 5 4 0
-0.0708702 0.0456988 -0.0182886 -0.860662 0.499782 -0.097365 187 164 92
0.0422418 -0.0498179 -0.112949 -0.80106 0.238537 0.549001 246 204 101
0.0367843 -0.00720079 0.0967973 -0.899294 -0.42585 -0.09961 150 143 96
0.0555612 -0.0013145 -0.0846048 0.982766 -0.063362 0.173658 173 141 70
0.03569 -0.00480046 0.0986115 -0.587259 -0.314604 0.745756 31 27 9
-0.0629456 0.0431986 -0.0194463 0.988545 0.13623 -0.064967 147 120 53
0.0634174 -0.0455233 -0.0407125 -0.983597 -0.05902 -0.170452 156 120 49
0.0376495 -0.00777774 0.0984302 -0.36225 0.366166 0.857145 24 22 2
0.0684567 -0.0405335 -0.0377103 0.992626 -0.079612 -0.091404 161 140 84
0.0152418 0.0747809 -0.0908364 0.041971 -0.917935 0.394505 245 225 133
0.029683 -0.00422307 0.105361 -0.571322 0.039408 -0.819779 198 188 119
0.0251819 -0.00380086 0.108336 -0.48491 0.087952 -0.87013 198 188 122
0.0312633 0.00157378 0.104539 -0.540388 -0.033672 -0.840742 193 181 115
0.0402771 -0.00228628 0.097154 -0.335688 -0.577373 0.744281 79 73 37
0.0322024 0.00268617 0.103524 -0.693637 -0.217691 -0.686643 192 176 115
-0.0585147 0.00738934 -0.0459844 0.999301 0.03567 -0.011176 158 127 60
0.0126007 0.0754139 -0.0852544 0.018928 -0.977798 -0.208695 246 228 127
-0.062785 0.0440846 -0.0145244 0.983709 0.179304 -0.012894 161 135 65
0.0559916 0.00742532 -0.0839428 0.99539 0.092161 -0.026545 190 168 100
-0.0645728 0.0479655 -0.0125698 0.985387 0.170309 -0.002847 168 147 81
0.0362194 -0.00826089 0.101622 -0.544344 0.452211 -0.706538 195 185 122
0.0331687 -0.00313994 0.103957 -0.215039 0.036556 -0.975921 136 128 77
0.0405548 -0.00678648 0.0979696 -0.931704 0.362927 0.014558 98 92 54
0.0603651 -0.0334009 -0.0303324 -0.963996 0.042523 0.262495 179 147 66
0.0314598 -0.00339265 0.10287 -0.14339 0.010052 -0.989615 185 174 108
0.0310493 -0.00209311 0.104004 -0.467032 0.274157 -0.840666 192 182 114
0.0319748 -0.005118 0.104227 -0.234792 -0.246117 -0.940372 199 191 124
0.066189 0.0458237 -0.0434294 0.99663 0.071705 -0.039828 162 130 64
0.0580777 0.00702381 -0.0783483 0.846453 0.0245 -0.5319 177 169 111
0.0319895 -0.00832475 0.10442 -0.235793 0.396791 -0.887107 183 175 112
0.0672713 0.0439609 -0.0464959 0.927362 0.32379 -0.187508 143 116 52
0.062288 0.0368834 -0.0482725 -0.913058 0.184469 0.363726 191 159 79
0.0383464 -0.0117246 0.104898 0.534631 -0.39596 0.746583 146 137 91
0.038771 -0.000252128 0.104423 0.596506 -0.018219 0.802402 182 169 105
0.0319533 0.000444517 0.109021 0.512734 -0.022654 0.858249 178 169 107
0.0656262 0.0399695 -0.0494456 0.895653 0.098852 -0.433628 186 161 91
0.0188942 0.00709787 0.112254 -0.152166 0.850753 -0.503056 167 149 88
0.0650227 0.0369148 -0.0544922 0.979432 0.155203 -0.128939 171 148 82
0.0224939 0.00513236 0.110033 -0.402246 0.182719 -0.897113 186 174 109
0.0148375 0.00224509 0.112672 -0.274673 0.040057 -0.960703 181 170 105
0.0667803 0.0366499 -0.0492048 0.858366 0.182471 -0.479492 173 152 87
0.0248636 0.00653673 0.10947 -0.377984 0.713237 -0.590272 186 172 108
0.024288 0.00735886 0.111565 0.077581 0.98933 0.123315 124 99 41
0.0705417 -0.0417748 -0.0300562 0.927401 -0.285287 -0.241947 166 149 87
0.064948 0.0402188 -0.0449636 -0.953999 0.093893 0.284726 189 156 79
0.0199089 0.00017797 0.110877 -0.356691 0.042142 -0.933271 189 177 110
0.025347 0.00223109 0.10853 -0.487384 0.025322 -0.87282 189 177 110
-0.0678795 0.0480005 -0.00688879 -0.844631 0.464956 0.265359 153 140 86
0.0691487 0.0377989 -0.0460299 0.870815 0.114415 -0.478112 115 81 23
-0.0715993 0.0606578 -0.0101712 -0.997689 -0.052983 0.042546 188 173 105
0.0616932 -0.0245452 -0.0310068 -0.935035 0.32208 0.148237 187 156 80
-0.0698186 0.0671991 -0.0119874 -0.967361 0.253396 0.001735 207 193 123
0.0699473 0.0397128 -0.0442478 0.948981 0.273178 -0.157507 158 134 73
0.0670283 -0.0221561 -0.0315006 0.817749 0.355135 -0.452953 170 147 77
0.0191724 0.0071507 0.114577 0.200869 0.843246 0.498585 111 90 37
0.0124768 0.00643214 0.117219 0.189746 0.434096 0.880657 116 106 70
0.0666945 0.0463277 -0.0403699 0.962662 -0.101098 -0.251121 146 112 53
0.0596125 0.0124707 -0.0736924 0.291968 0.85028 0.437926 101 78 33
0.019128 0.00569759 0.115389 0.328773 0.183335 0.926443 128 121 84
0.0588192 0.0122745 -0.0738165 -0.699035 0.3854 0.602342 126 99 41
0.0138858 0.0737416 -0.0810452 0.091544 -0.968594 -0.231183 229 192 92
0.0602715 0.00714516 -0.0757789 0.895225 0.048416 -0.442976 118 97 45
0.0276439 0.00594356 0.111775 0.401502 0.337453 0.851423 128 116 61
0.0690728 0.0399587 -0.0412934 0.908521 0.403603 0.10814 165 131 60
0.064972 0.0450987 -0.0386406 -0.931431 -0.259639 0.254997 127 99 40
0.0151954 0.0787162 -0.0759993 0.211023 0.888978 -0.406432 171 159 95
